1577
-44.193001 30.539000 22.172001
-43.608002 31.686001 21.299000
-43.990002 32.306000 21.882000
-44.374001 32.006001 22.407000
-43.609001 30.579000 21.344000
-44.493000 29.966999 22.780001
-43.959000 29.636999 22.003000
-44.731998 30.731001 22.983999
-44.894001 31.649000 23.164000
-38.875999 33.616001 16.291000
-38.574001 34.457001 16.441999
-39.292000 34.085999 16.841000
-39.242001 33.104000 16.469999
-38.582001 32.738998 15.860000
-38.284000 33.686001 15.963000
10.378000 39.370998 21.537001
9.995000 38.645000 21.323999
10.608000 38.969002 21.313999
11.205000 39.046001 21.618000
9.680000 39.094002 21.534000
10.086000 39.273998 22.066000
9.672000 38.195999 21.934999
-20.280001 28.468000 54.632999
-20.853001 28.113001 54.703999
-21.146999 28.733000 54.535000
-19.594999 29.080999 54.504002
-19.497000 28.632000 54.686001
-20.472000 29.035000 54.469002
-20.504000 27.658001 54.778000
-19.603001 28.152000 54.738998
-37.723000 16.983000 48.188999
-37.668999 16.603001 47.535000
-38.629002 17.152000 47.875999
-37.037998 16.975000 48.575001
-36.421001 16.499001 48.108002
-38.645000 17.533001 48.483002
-38.051998 17.533001 48.814999
-38.416000 16.688999 47.277000
-36.845001 16.195999 47.293999
-37.756001 16.184999 46.688000
-39.299000 17.143999 47.382000
-39.307999 17.653000 48.221001
-36.528999 15.576000 31.256001
-36.278000 15.760000 30.569000
-37.002998 15.937000 30.615999
-35.749001 15.251000 31.275999
-37.272999 15.788000 31.165001
-36.032001 15.186000 32.014999
-36.973999 15.523000 31.728001
-36.549000 15.216000 32.317001
-35.588001 15.459000 30.533001
-36.126999 15.958000 29.770000
-36.657001 16.122999 30.056999
-37.175999 16.216000 29.954000
-37.688000 16.007999 30.757999
-40.783001 29.445000 17.879000
-40.252998 29.334000 17.357000
-40.653999 30.103001 17.591999
-41.127998 29.223000 18.358999
-40.452999 28.705999 17.768999
-41.625000 29.618000 18.764999
-41.542999 28.809000 18.934000
-40.950001 28.382999 18.438999
-41.513000 42.018002 27.660000
-41.057999 42.188999 28.063000
-41.228001 42.386002 28.545000
-41.477001 42.551998 29.033001
-42.041000 42.250999 29.319000
2.226000 14.883000 31.798000
3.083000 14.808000 31.660000
2.429000 15.119000 31.007000
1.485000 15.184000 31.075001
1.203000 14.968000 31.919001
2.634000 14.464000 32.521999
1.681000 14.563000 32.780998
3.352000 15.099000 30.770000
2.251000 15.350000 30.143000
3.910000 14.737000 31.596001
3.578000 14.370000 32.506001
-11.178000 39.633999 45.298000
-11.471000 39.846001 44.931000
-10.537000 39.941002 45.012001
-10.328000 39.730000 45.459999
-11.908000 39.187000 45.693001
-11.937000 39.504002 45.173000
-37.285000 23.886000 18.896999
-36.881001 23.223000 19.312000
-36.576000 23.648001 18.716000
-37.194000 24.594000 18.289000
-37.952000 24.492001 18.809999
-37.887001 23.750000 19.455000
-37.473000 23.170000 19.719999
-36.424999 24.125999 18.264000
4.271000 40.095001 47.993000
3.998000 39.759998 48.499001
-21.885000 15.680000 48.917999
-21.386999 15.173000 48.154999
-22.669001 15.791000 48.944000
-21.091000 15.336000 48.668999
-20.145000 14.927000 48.222000
-21.047001 14.827000 47.601002
-21.103001 15.696000 49.249001
-21.840000 16.009001 49.544998
-11.973000 32.688000 4.458000
-12.883000 33.221001 4.579000
-13.686000 32.685001 4.672000
-13.759000 32.216999 4.409000
5.840000 36.879002 48.367001
6.294000 36.460999 48.075001
5.502000 36.466000 48.615002
6.424000 36.908001 47.955002
5.344000 37.157001 48.624001
5.951000 36.099998 48.372002
5.461000 35.867001 48.693001
4.884000 36.334000 49.032001
5.019000 36.778000 48.873001
6.823000 36.200001 47.610001
6.430000 35.941002 47.952999
7.030000 36.643002 47.445000
-17.754999 39.173000 8.482000
-18.569000 38.375000 8.203000
-17.799999 38.546001 8.017000
-16.871000 39.292000 8.233000
-17.039000 39.764999 8.638000
-18.587999 39.112000 8.802000
-17.761000 39.827000 9.080000
-17.035000 40.658001 9.600000
-18.032000 40.187000 9.635000
-18.707001 39.632000 9.337000
-16.889999 40.278000 9.072000
0.583000 13.478000 46.931999
-31.877001 19.423000 53.931000
-30.542999 19.624001 54.293999
-30.983000 19.106001 53.853001
-31.895000 18.714001 53.346001
-32.855000 19.037001 53.358002
-31.795000 20.075001 54.509998
-32.759998 19.688000 54.023998
-31.917999 21.938999 17.393000
-32.501999 21.908001 17.889000
-32.667000 22.614000 17.377001
-31.261000 21.882000 16.983000
-31.951000 22.691000 16.851000
-33.338001 22.427000 18.009001
-32.216999 21.112000 18.299999
-24.860001 37.318001 47.665001
-25.747999 37.372002 47.555000
-25.035000 37.756001 47.139999
-24.098000 37.216999 47.789001
-24.896999 36.840000 48.182999
-24.101999 37.765999 47.180000
-25.812000 36.771999 48.153999
-25.669001 38.015999 46.728001
-24.729000 38.160000 46.612000
-26.957001 37.370998 47.497002
-26.354000 37.698002 47.084999
-26.516001 37.009998 47.887001
-18.926001 33.855999 6.510000
-18.955999 34.654999 6.673000
-17.825001 34.036999 6.354000
-18.212999 34.620998 6.556000
-19.347000 33.026001 6.517000
-18.327000 33.365002 6.340000
-18.216999 35.550999 6.786000
-18.966999 35.410999 6.902000
-20.347000 32.952999 6.749000
-38.741001 36.569000 17.796000
-39.377998 36.299000 18.136999
-39.001999 35.786999 17.504999
-38.333000 36.076000 17.124001
-38.058998 36.834000 17.500000
-38.967999 37.247002 18.455999
-38.433998 37.241001 18.042999
-39.660999 35.500000 17.879999
-39.273998 34.942001 17.275000
-38.661999 35.209999 16.895000
-3.560000 38.976002 8.773000
-4.255000 38.966999 8.423000
-2.831000 38.893002 9.179000
-3.036000 39.744999 9.012000
-3.823000 39.777000 8.717000
-4.485000 39.902000 8.544000
-4.921000 39.098000 8.148000
0.440000 46.014999 33.778999
-0.167000 46.063999 34.173000
-0.139000 28.363001 51.366001
-0.570000 28.680000 51.923000
0.166000 29.010000 51.585999
0.427000 28.632000 51.033001
0.187000 28.054001 50.707001
-0.763000 28.051001 51.675999
-0.554000 27.752001 51.202000
2.992000 20.033001 49.182999
2.787000 20.100000 48.702999
2.175000 20.375999 49.061001
2.442000 19.388000 49.169998
3.307000 20.732000 48.800999
3.013000 21.103001 49.009998
2.276000 19.427999 48.766998
1.567000 19.457001 49.120998
1.803000 18.740000 48.872002
1.328000 20.099001 49.241001
1.509000 20.839001 49.252998
2.441000 21.382999 49.193001
-32.078999 14.271000 27.653000
-31.393999 13.821000 28.233000
-31.195000 13.909000 27.361000
-32.174000 14.098000 28.778000
-32.828999 14.847000 27.118999
-32.896999 14.583000 28.320000
-31.743999 14.380000 26.600000
-33.346001 15.367000 26.434999
-33.901001 15.401000 27.315001
-33.449001 14.982000 27.889999
-32.462002 15.003000 25.964001
-19.235001 15.500000 50.227001
-18.521000 15.063000 49.745998
-19.337999 15.242000 49.534000
-20.002001 15.666000 49.916000
-20.014000 15.964000 50.602001
-18.377001 15.199000 50.278000
-19.270000 15.672000 50.779999
-18.577000 14.847000 49.148998
-19.415001 14.976000 48.813000
-20.139000 15.346000 49.125000
-17.664000 14.840000 49.895000
-17.718000 14.622000 49.344002
-23.601999 37.826000 9.845000
-22.743000 38.179001 9.815000
-23.186001 38.558998 10.386000
-24.555000 37.255001 9.794000
-23.612000 37.258999 9.390000
-24.059999 38.104000 10.334000
-15.994000 21.622000 53.539001
-16.572001 21.879000 53.569000
-17.041000 22.552000 53.661999
-17.475000 37.472000 48.293999
-17.683001 37.095001 48.702000
-17.591999 37.787998 47.881001
-16.978001 37.730000 47.939999
-41.078999 17.549000 31.191999
-41.811001 18.002001 31.468000
-41.351002 17.489000 31.996000
-40.793999 17.627001 30.552000
-41.661999 18.087999 30.738001
-40.561001 17.121000 31.646000
-40.187000 17.093000 31.040001
11.916000 40.561001 32.277000
11.821000 40.533001 32.847000
11.145000 41.172001 32.173000
12.208000 40.234001 31.686001
12.555000 40.120998 32.605999
11.473000 40.863998 31.628000
13.107000 39.580002 32.831001
13.140000 39.644001 33.466000
-32.325001 42.786999 36.145000
-33.004002 42.851002 35.521999
-31.872999 43.125999 35.280998
-31.473000 42.928001 35.925999
-31.952000 42.651001 36.969002
-33.001999 42.556999 36.603001
-43.446999 26.672001 22.858999
-43.410999 27.448000 22.268000
-44.043999 27.181000 23.407000
-42.924999 26.045000 22.635000
-42.681999 26.468000 21.914000
-43.724998 26.135000 23.694000
-43.056999 25.455999 23.356001
-42.953999 27.239000 21.665001
-6.788000 37.590000 50.431000
-6.201000 37.979000 50.243999
-6.176000 37.490002 50.549999
-6.883000 37.973999 50.140999
-7.519000 37.922001 50.139000
-6.647000 37.207001 50.769001
-7.421000 37.504002 50.469002
-7.332000 37.132000 50.804001
-8.031000 37.109001 50.606998
-8.033000 37.667999 50.290001
-15.164000 15.986000 19.747999
-14.100000 16.421000 19.818001
-14.598000 16.238001 19.247999
-15.587000 15.797000 19.167000
-16.264999 15.491000 19.872999
-23.552000 15.565000 18.386999
-23.671000 15.253000 19.190001
-22.816999 15.085000 18.955999
-24.403000 15.906000 18.455000
-23.865000 16.100000 17.604000
-39.049000 22.176001 22.040001
-38.646000 21.510000 22.363001
-38.429001 22.045000 21.580999
-39.292000 21.645000 22.893000
-38.612999 22.674000 21.034000
-39.723000 22.236000 22.566999
-27.181999 12.967000 28.718000
-26.931000 12.967000 29.697001
-26.289000 13.004000 29.004999
-28.392000 12.953000 28.905001
-27.749001 12.947000 29.370001
-26.259001 12.972000 28.207001
-27.028000 12.970000 27.915001
-27.819000 12.941000 28.183001
-11.366000 45.217999 31.791000
-11.656000 45.317001 31.039000
-11.021000 45.401001 30.870001
-11.210000 44.912998 32.761002
-12.007000 45.035000 32.311001
-10.512000 45.319000 31.344000
-10.595000 45.011002 32.610001
-10.562000 45.171001 31.966999
-12.199000 45.203999 31.527000
-15.681000 31.648001 53.351002
-16.011000 31.219999 53.700001
-16.353001 31.837000 53.243000
-15.718000 32.192001 53.080002
-15.023000 32.004002 53.209000
-16.290001 32.480999 52.800999
-16.721001 31.389000 53.563999
-17.363001 31.643999 53.429001
-16.804001 32.145000 53.013000
-5.789000 41.445000 44.402000
-4.837000 41.570999 44.448002
-5.504000 41.304001 44.873001
-6.249000 41.036999 45.126999
-6.782000 41.217999 44.820000
-6.498000 41.412998 44.312000
-5.669000 41.813999 43.998001
-4.855000 41.238998 45.076000
-5.683000 40.895000 45.527000
-4.707000 41.984001 44.000999
-3.948000 41.946999 44.185001
-4.106000 41.507999 44.699001
-10.080000 36.854000 50.528999
-10.717000 37.035000 50.287998
-10.252000 37.221001 50.091999
-9.677000 37.153999 50.432999
-9.567000 36.737999 50.782001
-10.248000 36.660999 50.827000
-11.182000 37.229000 49.891998
-10.776000 37.467999 49.752998
-10.947000 36.703999 50.636002
-11.394000 36.908001 50.265999
-9.644000 37.430000 50.027000
-10.214000 37.591000 49.644001
-36.907001 36.646000 16.636999
-36.556000 36.005001 16.091000
-36.167000 36.657001 16.282000
-36.352001 37.299000 16.756001
-36.957001 37.243999 17.103001
-37.526001 36.592999 16.966999
-37.273998 35.810001 16.358000
12.279000 23.159000 28.131001
12.454000 23.406000 28.753000
12.255000 24.013000 28.101000
12.206000 23.674000 27.468000
12.343000 22.716999 28.677999
12.179000 22.834000 27.606001
12.147000 22.221001 28.259001
12.358000 22.181999 29.138000
12.657000 22.934000 29.379999
-8.463000 16.632000 13.906000
-7.785000 16.591999 14.739000
-7.751000 16.420000 13.945000
-8.164000 16.368000 13.143000
-8.892000 16.545000 13.193000
-8.501000 16.775000 14.625000
-9.280000 16.813999 13.850000
11.901000 34.699001 26.157000
11.891000 34.737999 25.367001
-19.077999 14.993000 31.681000
-19.420000 15.082000 30.701000
-19.927000 14.789000 31.224001
-18.855000 14.774000 32.324001
-18.534000 15.261000 31.500000
-18.066000 15.036000 32.502998
-17.759001 15.312000 31.996000
-17.839001 15.612000 31.048000
-18.481001 15.475000 30.635000
-26.854000 43.888000 33.734001
-27.414000 43.808998 34.527000
-27.757000 43.870998 33.817001
-26.271999 43.935001 33.123001
-25.912001 43.751999 33.797001
-27.125999 44.000999 33.032001
-26.563000 43.754002 34.353001
-16.716999 43.952000 37.263000
-17.379999 44.113998 36.924000
-17.492001 43.873001 37.641998
-18.454000 43.904999 37.097000
-18.114000 44.155998 36.588001
-18.306000 14.463000 48.479000
-17.993000 13.987000 47.657001
-19.033001 14.591000 48.244999
-17.635000 14.296000 48.653999
-17.110001 13.772000 47.854000
-3.907000 43.840000 41.598999
-3.415000 43.681999 42.070000
-4.238000 43.354000 42.355999
-4.538000 43.835999 41.214001
-3.666000 44.215000 40.881001
-2.985000 44.097000 41.598999
-4.788000 43.467999 41.924999
-2.068000 44.389999 41.508999
-2.514000 43.860001 42.173000
-2.792000 44.405998 41.062000
-2.325000 29.542999 7.216000
-1.681000 29.917999 7.481000
-3.102000 28.990000 6.212000
-2.399000 29.007999 6.943000
-2.035000 30.214001 7.789000
-2.740000 30.040001 7.772000
-2.952000 29.270000 7.167000
-13.678000 45.854000 21.889999
-12.972000 45.980000 21.298000
-12.806000 45.952999 22.136999
-14.109000 45.761002 22.447001
-14.513000 45.771999 21.365000
-13.041000 45.957001 22.806000
-13.818000 45.891998 20.929001
-12.302000 46.102001 20.756001
-12.089000 46.119999 21.301001
-12.107000 46.078999 21.941000
-12.095000 46.040001 23.003000
-33.157001 16.635000 23.667000
-33.389999 17.264000 22.905001
-34.101002 17.103001 23.813999
-32.143002 16.086000 23.528999
-32.557999 16.775000 22.812000
-33.726002 16.454000 24.497999
-32.880001 16.014999 24.438000
-45.013000 26.789000 24.986000
-45.359001 27.892000 24.806999
-45.497002 27.224001 25.375999
-44.605000 26.077999 24.962000
-44.398998 26.684999 24.204000
-45.532001 26.469000 25.948000
-44.938999 25.782000 25.643999
-44.771000 27.516001 24.193001
-4.834000 16.495001 14.454000
-5.729000 16.421000 14.227000
-5.622000 16.436001 14.830000
-4.331000 16.396999 15.310000
-3.872000 16.556999 14.556000
-5.083000 16.434000 15.277000
-4.110000 16.672001 13.939000
-5.257000 16.500000 13.610000
-6.474000 16.414000 14.629000
-6.050000 16.448000 15.338000
-6.043000 16.375000 13.465000
-6.710000 16.297001 13.628000
-30.986000 36.022999 12.524000
-30.313000 36.130001 12.130000
-30.402000 36.612999 12.768000
-31.134001 36.460999 13.084000
-31.650000 35.963001 12.981000
-31.688999 35.417000 12.546000
-31.014000 35.458000 11.991000
-29.638000 36.518002 11.963000
-29.615999 36.979000 12.503000
-30.398001 35.473999 11.652000
-29.739000 35.919998 11.563000
-7.048000 12.950000 42.108002
-6.215000 12.915000 41.764999
-7.109000 13.159000 41.376999
-7.751000 13.061000 42.060001
-7.486000 12.867000 42.780998
-7.701000 12.789000 43.564999
-6.975000 12.769000 43.999001
-5.707000 13.082000 40.728001
-6.522000 13.088000 40.865002
-5.249000 12.806000 41.539001
11.060000 29.482000 25.617001
11.347000 28.591000 26.006001
11.433000 29.275999 26.548000
11.087000 30.226000 25.950001
11.189000 29.034000 24.997000
10.688000 30.462000 24.993000
10.882000 29.802000 24.587999
11.548000 27.743000 25.826000
11.641000 27.632000 26.680000
11.697000 28.408001 27.007999
11.469000 28.275999 25.205000
12.088000 29.114000 27.437000
11.665000 30.075001 26.768999
-33.799999 41.470001 22.250000
-34.299000 41.182999 21.653999
-0.028000 14.838000 15.696000
-0.426000 15.571000 15.673000
-0.029000 15.234000 16.452000
0.655000 14.831000 16.351000
0.585000 15.599000 15.602000
0.023000 15.933000 15.082000
-0.647000 16.096001 14.844000
-1.374000 16.115000 15.214000
-0.970000 15.646000 16.114000
-34.493999 40.862000 40.868999
-34.240002 40.644001 41.452000
-35.223999 41.069000 40.401001
-36.950001 41.209000 39.653000
-35.837002 41.313999 39.723999
-15.297000 21.594000 53.504002
-14.866000 22.000999 53.536999
-39.474998 41.973000 37.390999
-39.205002 42.188000 36.764000
-38.521000 42.110001 37.041000
-38.799999 41.799000 37.876999
-39.991001 42.175999 36.728001
-39.685001 41.702999 37.994999
-40.384998 41.896000 37.308998
-40.356998 24.646000 20.656000
-40.660000 25.259001 20.402000
-40.451000 26.302999 19.231001
-40.834000 25.909000 19.992001
-17.563000 44.872002 25.253000
-16.853001 45.077000 25.457001
-17.323999 44.936001 26.351999
-17.611000 44.868999 24.327999
-16.879999 45.061001 24.444000
-17.973000 44.763000 26.289000
-18.410999 44.631001 24.813999
-18.256001 44.698002 25.575001
-16.662001 45.126999 26.089001
8.493000 43.501999 33.215000
8.081000 43.308998 33.745998
7.519000 44.118000 33.169998
8.691000 43.558998 32.450001
8.950000 42.821999 33.356998
8.177000 44.082001 32.640999
7.357000 43.703999 33.970001
-7.774000 16.263000 29.795000
-7.724000 16.212000 30.884001
-8.484000 16.353001 29.014999
-8.703000 16.341999 30.218000
-7.717000 16.312000 28.438999
-6.636000 16.146999 31.028999
-8.715000 16.285000 31.237000
-7.061000 16.121000 31.820999
-8.028000 16.221001 31.910000
-25.167000 31.653999 8.771000
-24.358000 31.725000 8.398000
-24.611000 32.504002 8.465000
-25.438000 32.463001 8.795000
-26.017000 31.844000 9.025000
-1.241000 27.325001 51.504002
-0.410000 27.507000 50.747002
-1.055000 27.094999 50.997002
-1.532000 26.625999 51.153999
-1.908000 26.872999 51.792999
-1.515000 27.587000 51.964001
-1.138000 28.219000 52.112999
-32.456001 23.421000 16.568001
-33.011002 23.316000 17.072001
-31.577999 23.049999 16.226000
-32.243000 23.889999 16.021000
-33.258999 24.066000 16.556999
-33.527000 23.058001 17.559999
-33.785999 23.771999 17.143999
-30.921000 22.330000 16.374001
-9.925000 17.496000 19.056999
-10.106000 17.504999 18.083000
-10.670000 17.462999 18.610001
-11.053000 17.351999 19.240999
-10.438000 17.412001 19.801001
-9.662000 17.441000 20.021000
-9.064000 17.393999 19.451000
-9.221000 17.462999 18.544001
-1.805000 44.122002 14.850000
-2.309000 44.598999 15.287000
-2.924000 44.696999 15.017000
-3.341000 44.480000 14.477000
10.925000 29.513000 45.381001
11.710000 29.417999 45.495998
11.302000 29.058001 45.903999
11.240000 29.958000 44.723000
11.761000 29.806000 44.966999
10.644000 28.836000 46.130001
10.231000 29.114000 45.790001
10.194000 29.643999 45.108002
-22.221001 40.136002 11.988000
-22.365000 40.500000 12.567000
-22.913000 39.926998 12.012000
-22.469999 39.664001 11.451000
-21.544001 40.335999 11.997000
-21.337999 40.869999 12.483000
-21.719000 41.049999 12.991000
-22.374001 40.938999 13.218000
-23.160999 40.506001 12.977000
-23.441000 40.039001 12.439000
-24.051001 39.537998 11.996000
-23.507000 39.353001 11.500000
-48.007000 21.663000 36.314999
-47.441002 20.804001 37.129002
-47.396999 20.969000 36.077000
-47.922001 21.804001 35.430000
-48.525002 22.562000 36.160000
-48.567001 22.540001 37.046001
-48.064999 21.673000 37.102001
-8.926000 45.328999 33.324001
-8.502000 45.514999 32.723999
-8.127000 45.445000 33.308998
-8.584000 45.217999 33.979000
-9.451000 44.999001 33.800999
-9.851000 45.007999 33.195999
-9.269000 45.374001 32.689999
4.419000 31.801001 46.543999
4.127000 31.808001 46.028000
4.780000 32.453999 45.971001
3.760000 31.427000 45.675999
3.563000 30.783001 45.910000
4.060000 31.959000 45.418999
-15.763000 45.020000 17.495001
-15.173000 45.026001 16.966999
-30.524000 21.441000 16.778000
-29.819000 21.080000 16.537001
-30.080000 21.839001 16.129999
-11.662000 46.136002 20.253000
-20.781000 39.380001 45.812000
-20.455000 39.261002 46.199001
-21.162001 38.908001 46.327000
-21.492001 39.123001 45.846001
-21.093000 39.643002 45.257999
-20.374001 39.787998 45.443001
3.265000 43.847000 36.513000
3.333000 43.962002 37.320000
3.151000 44.508999 36.500000
3.629000 44.362000 35.937000
3.740000 43.653999 37.186001
2.977000 44.314999 37.463001
2.652000 44.766998 36.812000
3.915000 43.877998 37.930000
4.284000 43.616001 37.709999
3.452000 44.992001 35.681999
3.325000 45.404999 35.880001
3.524000 45.443001 36.508999
9.766000 16.801001 26.504999
9.664000 16.795000 25.535000
9.243000 16.365999 26.284000
10.285000 17.408001 26.249001
10.336000 17.455000 27.107000
9.670000 16.781000 27.240999
8.738000 16.131001 26.980000
8.898000 16.201000 25.535000
8.478000 16.018999 26.261000
-8.807000 13.508000 40.316002
-7.937000 13.455000 39.726002
-8.780000 13.608000 39.490002
-8.888000 13.434000 41.319000
-7.833000 13.353000 40.699001
-9.865000 13.651000 39.573002
-9.584000 13.564000 40.645000
-9.343000 13.756000 38.993999
-8.154000 13.744000 38.842999
-8.914000 13.835000 38.404999
-7.304000 13.582000 39.296001
-6.916000 13.270000 40.110001
-34.313999 13.997000 43.227001
-34.414001 13.965000 42.492001
-35.136002 14.431000 43.195999
-33.744999 13.912000 43.986000
-33.640999 13.595000 43.102001
-34.622002 14.385000 44.063999
-10.792000 42.603001 40.249001
-10.311000 42.435001 40.789001
-11.072000 42.286999 40.888000
-10.841000 42.854000 39.473000
-10.374000 42.904999 39.755001
-11.600000 42.388000 40.498001
-11.400000 42.668999 39.866001
-10.095000 42.741001 40.257000
-9.775000 43.020000 39.706001
-9.520000 42.810001 40.416000
-27.261000 41.233002 18.309000
-27.042999 41.594002 18.952000
-27.997999 41.044998 18.461000
-26.482000 41.627998 18.576000
-27.545000 40.882999 17.607000
-26.731001 41.264999 17.872000
-26.514000 41.867001 19.434000
-27.530001 41.479000 19.365999
-17.268000 42.153000 11.806000
-16.479000 42.331001 11.458000
-16.607000 42.603001 12.137000
-18.037001 41.652000 11.611000
-17.164000 41.891998 11.372000
-17.364000 42.422001 12.369000
-18.207001 41.908001 12.166000
-15.443000 42.672001 11.524000
-15.988000 42.654999 11.859000
-15.731000 42.285999 11.007000
-16.666000 41.844002 10.915000
-10.525000 40.368000 44.629002
-11.104000 40.307999 44.598999
-10.471000 40.683998 44.167999
-9.931000 40.472000 44.592999
-11.042000 40.785000 43.932999
-11.816000 40.151001 44.601002
-11.600000 40.528000 44.193001
-12.251000 45.770000 27.000000
-12.943000 45.645000 27.382999
-12.965000 45.720001 26.480000
-11.565000 45.778000 27.679001
-12.273000 45.703999 27.874001
-11.330000 45.801998 27.087000
-11.791000 45.806999 26.447001
-12.569000 45.792000 25.930000
-11.557000 45.772999 28.406000
-10.797000 45.839001 27.898001
-6.291000 46.450001 27.316000
-5.986000 46.502998 26.756001
-48.501999 23.056999 38.425999
-48.127998 22.934999 39.285999
-48.062000 22.166000 38.619999
-48.805000 23.993000 38.563999
-48.428001 23.753000 39.229000
-48.785000 23.223000 37.675999
-48.296001 22.232000 37.833000
17.931000 33.839001 37.702000
17.617001 34.581001 38.112999
-32.845001 41.729000 22.417000
-33.276001 41.831001 23.045000
5.029000 43.409000 38.173000
4.627000 43.733002 38.491001
-4.230000 20.073999 50.432999
-4.503000 20.537001 50.708000
-3.587000 20.326000 50.212002
-4.863000 19.806000 50.676998
-3.944000 19.559000 50.219002
-2.992000 19.929001 49.928001
-3.357000 19.187000 49.956001
-4.909000 19.181000 50.549999
-4.051000 18.820999 50.160999
-14.293000 12.705000 41.550999
-13.586000 12.644000 41.862000
-14.064000 12.999000 41.261002
-14.781000 13.006000 40.970001
-15.128000 12.789000 41.323002
-14.615000 12.503000 41.849998
-13.639000 12.380000 42.235001
-14.243000 12.298000 42.433998
-15.608000 12.620000 41.747002
-15.098000 12.367000 42.250000
-24.037001 20.424999 12.507000
-23.683001 19.693001 12.937000
-23.245001 20.129000 12.206000
-23.674000 20.917000 11.867000
-24.572001 20.305000 13.126000
-24.610001 21.104000 12.406000
-22.737000 20.684000 11.512000
-22.302999 19.851999 11.916000
-24.077999 19.482000 13.508000
-5.919000 46.623001 22.782000
-6.579000 46.537998 21.905001
-5.834000 46.568001 22.080000
-5.154000 46.674999 23.333000
-5.850000 46.632000 23.636000
-6.474000 46.577000 23.200001
-5.163000 46.627998 22.642000
-6.574000 46.546001 23.892000
1.469000 29.760000 51.596001
2.297000 12.299000 39.978001
2.218000 12.136000 40.740002
3.229000 12.294000 40.368000
1.563000 12.279000 40.289001
2.970000 12.456000 39.462002
1.033000 12.541000 39.959999
-37.353001 31.268000 52.216000
-37.117001 31.990000 51.624001
-36.221001 31.566000 51.957001
-38.807999 30.976000 52.365002
-38.179001 31.707001 51.820999
-36.604000 30.775999 52.580002
-37.875000 30.603001 52.665001
-22.709000 17.004000 50.861000
-21.972000 16.884001 50.983002
-22.278999 16.665001 50.466000
-23.424000 17.229000 51.183998
-22.570999 17.289000 51.396000
-23.084999 16.590000 50.179001
-23.495001 16.870001 50.660999
12.458000 17.697001 32.898998
11.791000 17.110001 32.438999
12.230000 16.989000 33.511002
13.069000 18.219000 33.227001
12.670000 18.447001 32.316002
12.871000 17.568001 33.953999
12.089000 17.982000 31.978001
-33.342999 37.921001 45.908001
-32.683998 37.473000 46.601002
-33.563999 37.317001 46.424999
-34.147999 38.070000 45.432999
-33.291000 38.556000 45.133999
-32.269001 38.034000 46.228001
-32.629002 38.333000 45.630001
-33.333000 15.734000 25.441999
-34.262001 16.358000 25.372999
-34.162998 15.954000 26.283001
-32.321999 15.437000 24.885000
-34.728001 17.014000 24.662001
-31.511999 15.461000 23.962999
-14.912000 34.542000 51.689999
-15.153000 34.000999 52.060001
-15.647000 34.188000 51.772999
-15.597000 34.651001 51.411999
-15.281000 35.028000 51.199001
-14.463000 34.119999 52.014000
-14.226000 34.606998 51.780998
-14.647000 35.073002 51.401001
-10.719000 46.202000 23.275999
-10.416000 46.145000 24.021000
-11.515000 46.054001 23.688000
-11.320000 46.158001 22.655001
-10.408000 46.217999 22.528999
-9.852000 46.280998 22.993000
-9.767000 46.242001 23.671000
-11.507000 46.187000 21.731001
5.788000 32.653000 48.195999
6.115000 32.886002 47.834000
5.208000 32.487000 48.780998
5.714000 33.023998 48.506001
6.233000 33.090000 47.339001
5.977000 32.904999 46.963001
-9.821000 46.081001 18.049000
-9.136000 46.160999 18.320999
-10.108000 45.930000 17.355000
-9.318000 46.049000 17.535000
-5.383000 38.945000 49.714001
-4.824000 39.088001 49.514999
-5.173000 38.444000 50.000999
-5.935000 38.469002 49.849998
7.760000 14.749000 41.619999
6.900000 14.060000 41.557999
7.197000 14.645000 42.376999
7.970000 15.267000 42.333000
8.550000 15.554000 42.116001
8.522000 15.170000 41.262001
8.323000 14.603000 40.602001
7.595000 14.231000 40.848999
6.754000 14.940000 43.151001
6.410000 14.175000 42.589001
6.244000 13.410000 40.694000
6.103000 13.567000 41.639999
7.013000 13.708000 40.432999
-38.478001 15.925000 32.131001
-38.207001 15.653000 32.757000
-37.696999 15.663000 31.981001
-39.167999 16.238001 32.077999
-39.013000 16.010000 32.765999
-37.942001 15.864000 31.398001
-38.453999 16.193001 31.017000
-38.964001 16.264999 31.490999
-37.150002 15.378000 32.382000
-37.544998 15.381000 32.728001
-37.960999 15.424000 33.458000
-38.687000 15.746000 33.448002
-43.926998 27.916000 22.725000
-44.485001 28.105000 23.438000
-43.247002 28.083000 21.594999
-43.866001 28.591999 22.231001
-7.584000 17.051001 20.615999
-6.809000 16.815001 21.030001
-7.008000 16.909000 19.962999
-8.340000 17.198999 21.184000
-7.472000 16.929001 21.541000
-7.925000 17.187000 19.775000
-8.541000 17.264999 20.186001
-7.264000 16.806999 22.388000
-6.586000 16.645000 22.112000
-8.365000 17.046000 21.983000
-9.671000 42.505001 9.702000
-9.514000 41.901001 9.090000
-8.787000 42.575001 9.800000
-10.281000 42.020000 9.203000
-10.460000 42.743999 9.925000
-9.805000 43.046001 10.330000
-9.809000 41.273998 8.510000
-8.991000 41.417000 8.688000
-8.732000 42.056999 9.262000
-10.485000 41.508999 8.724000
-27.020000 12.010000 43.723999
-27.082001 12.125000 43.216000
-28.643999 11.800000 42.737999
-27.850000 11.935000 42.874001
-8.075000 24.490000 6.824000
-8.605000 24.898001 6.767000
-8.880000 24.070999 6.771000
-7.991000 25.479000 6.872000
-7.437000 24.125999 6.662000
-7.484000 25.103001 6.903000
-8.292000 23.597000 6.769000
-8.664000 25.677000 6.720000
-9.289000 24.822001 6.669000
-28.323000 19.214001 54.014999
-27.070000 19.849001 54.320000
-28.077999 19.604000 54.289001
16.500999 28.996000 42.605999
16.600000 27.773001 42.227001
16.229000 27.978001 42.854000
16.798000 29.962999 42.228001
16.955000 28.916000 41.962002
16.024000 28.930000 43.196999
16.077000 29.754999 43.007000
17.194000 30.836000 41.570000
17.378000 30.018999 41.431999
16.171000 30.532000 42.653999
16.618999 30.878000 42.136002
-11.327000 15.239000 35.542000
-11.959000 15.392000 35.049000
-12.488000 15.075000 35.582001
-11.343000 15.724000 34.706001
-11.574000 14.980000 36.060001
-12.188000 35.334000 51.651001
-12.484000 34.834999 51.839001
-12.845000 35.342999 51.525002
-11.846000 34.840000 51.992001
-11.605000 35.333000 51.702000
-12.237000 35.745998 51.333000
-29.645000 23.646999 55.793999
-29.106001 24.693001 55.769001
-28.666000 23.825001 55.813000
-29.441999 22.877001 55.691002
-30.599001 22.801001 55.637001
-28.688000 40.306999 43.058998
-29.407000 40.209000 43.394001
-29.125000 40.672001 42.588001
-28.356001 40.717999 42.307999
-27.898001 40.518002 42.714001
-28.032000 40.111000 43.346001
-28.730000 39.863998 43.827000
-42.064999 35.389999 46.655998
-43.219002 35.087002 46.175999
-42.702999 35.611000 45.869999
-41.064999 35.693001 46.834000
-41.377998 35.068001 47.490002
-42.630001 34.772999 47.087002
-41.182999 36.200001 46.141998
-42.043999 36.057999 45.834000
-40.028000 36.287998 46.425999
-40.105000 35.695000 47.183998
-21.079000 33.210999 7.014000
-21.618000 33.706001 7.266000
-21.849001 32.987999 7.276000
-21.167000 32.299000 7.024000
-21.549000 34.439999 7.341000
-21.242001 35.120998 7.439000
-22.229000 33.800999 7.554000
-38.070999 36.620998 46.504002
-37.316002 37.014000 46.041000
-37.150002 36.374001 46.841999
-38.985001 36.169998 46.854000
-38.858002 36.751999 46.127998
-38.000999 36.002998 47.208000
-37.929001 37.365002 45.550999
-36.943001 35.834999 47.553001
-31.132999 34.564999 11.688000
-30.431999 34.775002 11.311000
-29.726999 35.341000 11.210000
-14.123000 31.951000 53.243999
-39.987999 16.233999 34.157001
-39.404999 16.066999 33.448002
-40.351002 16.544001 33.523998
-40.705002 16.600000 34.180000
-39.907001 16.420000 32.998001
-40.768002 16.881001 33.120998
10.013000 40.474998 34.778999
9.994000 41.346001 33.907001
10.494000 40.543999 34.323002
10.656000 39.798000 34.912998
9.948000 39.576000 35.423000
9.762000 38.622002 36.104000
9.289000 39.571999 35.761002
10.921000 39.092999 35.360001
10.371000 38.799000 35.749001
-20.656000 43.726002 19.412001
-20.341000 43.869999 20.032000
-21.266001 43.602001 20.105000
-21.530001 43.449001 19.195999
-20.705000 43.737000 18.719000
-19.650000 44.047001 19.243000
-20.726000 43.812000 20.724001
-19.593000 44.166000 20.177999
-19.865000 44.152000 20.856001
-21.504999 43.604000 21.006001
-21.985001 43.397999 19.938999
-14.824000 20.761999 6.996000
-14.142000 21.195000 7.401000
-14.501000 21.695000 6.950000
-15.297000 21.179001 6.508000
-15.286000 20.009001 6.921000
-14.437000 20.233999 7.467000
-13.663000 22.136999 7.435000
-15.017000 22.035000 6.391000
-14.333000 22.542999 6.830000
-13.696000 20.695000 7.857000
-13.508000 21.480000 7.735000
-2.649000 45.493000 16.879000
-2.988000 45.242001 16.181000
-2.119000 44.944000 15.851000
-2.912000 45.723999 17.436001
-3.500000 45.479000 16.629999
-30.386000 32.358002 51.619999
-30.118999 32.981998 51.299000
-29.424000 32.750999 51.567001
-31.143999 32.247002 51.617001
-30.850000 32.903000 51.185001
-29.757999 32.147999 51.882000
-30.561001 31.719999 52.044998
-30.433001 33.689999 50.730000
-29.693001 33.451000 51.053001
-28.903999 33.443001 51.202999
-28.683001 32.402000 51.937000
-28.636000 32.976002 51.630001
11.877000 36.979000 36.828999
11.198000 37.419998 36.526001
11.752000 37.950001 36.087002
12.359000 37.494999 36.410999
12.597000 36.450001 37.264999
11.555000 36.480000 37.209000
-46.445000 29.952999 25.816000
-46.792999 30.052000 26.542000
-46.237000 30.907000 25.302000
-45.952000 29.996000 24.927000
-46.415001 29.003000 26.038000
-46.096001 29.247999 25.327000
-45.599998 30.357000 24.285999
-45.791000 31.259001 24.521000
-46.136002 31.996000 25.059000
-30.811001 40.575001 18.997999
-31.629999 40.570000 19.181999
-31.278000 40.269001 18.520000
-30.781000 40.945999 19.573999
-30.386999 40.428001 18.462000
-30.007999 40.777000 19.167999
-18.408001 19.542999 53.529999
-17.941000 20.106001 53.405998
-17.629000 19.697001 53.367001
-17.844999 19.080999 53.424000
-18.436001 18.783001 53.605000
-18.548000 20.188999 53.557999
-15.204000 37.716000 47.537998
-14.629000 37.826000 47.289001
-14.704000 37.641998 47.735001
-15.047000 37.414001 48.147999
-14.767000 37.951000 46.873001
-15.326000 38.053001 46.907001
-15.700000 37.757999 47.400002
-15.632000 37.521000 48.111000
-4.836000 46.410999 31.701000
-5.177000 46.247002 32.653000
-5.697000 46.247002 32.092999
-4.360000 46.535999 31.108999
-5.305000 46.428001 30.975000
-5.791000 46.301998 31.518999
-4.392000 46.411999 32.333000
-4.549000 46.224998 33.277000
-5.634000 46.099998 33.306000
-6.106000 46.099998 32.674999
-6.531000 46.132999 31.822001
13.251000 37.644001 36.290001
13.081000 36.966999 36.839001
12.460000 38.183998 35.813000
12.564000 38.801998 35.160999
13.175000 38.293999 35.672001
11.725000 38.692001 35.410999
-40.153000 15.855000 37.803001
-39.416000 15.613000 37.120998
-40.917000 16.212000 37.155998
-3.348000 16.834999 49.596001
-4.387000 17.035000 49.831001
-3.840000 17.480000 49.830002
-2.029000 16.287001 49.515999
-2.922000 16.118999 49.372002
-1.979000 17.054001 49.574001
-2.937000 17.634001 49.668999
-4.079000 16.261000 49.463001
-4.792000 16.558001 49.755001
-3.686000 15.708000 49.138000
-4.822000 15.637000 49.212002
-5.240000 16.041000 49.601002
-24.396000 43.603001 32.730000
-23.570999 43.324001 33.187000
-24.254000 43.403000 33.390999
-24.957001 43.806999 32.250999
-24.004000 43.673000 32.005001
-25.077999 43.584000 33.373001
-25.518000 43.810001 32.855000
-23.476000 43.523998 32.416000
-22.624001 33.092999 7.646000
-22.972000 33.783001 7.865000
-23.386000 33.164001 7.945000
-23.164000 32.372002 7.824000
-22.426001 32.431999 7.518000
-21.830000 32.215000 7.231000
-22.511999 34.502998 7.802000
-21.909000 34.688999 7.594000
8.965000 28.290001 46.516998
8.313000 28.740000 46.076000
9.586000 28.687000 46.241001
9.509000 28.062000 46.832001
8.992000 28.872999 45.973000
10.117000 27.798000 47.057999
9.561000 27.499001 47.346001
10.129000 28.419001 46.505001
-18.551001 44.403000 34.027000
-19.618000 44.120998 33.810001
-18.766001 44.451000 33.377998
-17.747999 44.553001 34.330002
-18.344999 44.397999 34.734001
-17.796000 44.601002 33.660000
-19.215000 44.155998 34.300999
-7.772000 35.242001 6.532000
-7.445000 36.078999 6.503000
-42.180000 17.400000 33.977001
-41.490002 17.117001 33.703999
-41.318001 16.837999 34.376999
-41.501999 17.341999 32.855000
-31.208000 18.271999 19.826000
-32.131001 19.034000 19.858000
-14.192000 29.565001 54.599998
-13.358000 29.589001 54.620998
-13.664000 29.083000 54.820000
-14.336000 29.101000 54.676998
-14.931000 29.358000 54.627998
-47.539001 34.474998 38.653000
-47.901001 33.678001 38.180000
-47.604000 34.724998 38.015999
-47.032001 35.462002 38.723999
-47.198002 34.997002 39.144001
-47.344002 34.428001 39.459000
-47.701000 33.764000 39.054001
-25.948000 32.659000 52.099998
-25.957001 32.189999 52.470001
-26.794001 32.486000 52.176998
-26.214001 33.153000 51.734001
-25.289000 32.941002 51.938000
-25.132000 32.363998 52.370998
-26.091999 31.690001 52.742001
-26.820000 31.986000 52.582001
-25.240999 31.797001 52.755001
1.960000 12.724000 44.478001
0.865000 12.215000 44.022999
1.462000 12.776000 44.945999
1.578000 12.268000 43.518002
2.227000 13.386000 45.439999
2.417000 12.715000 43.984001
2.942000 13.404000 44.853001
0.616000 11.974000 43.189999
-0.089000 11.986000 43.521999
0.829000 12.537000 44.971001
-0.114000 12.035000 44.070999
1.595000 13.375000 45.938999
-27.882999 21.208000 15.243000
-28.690001 21.639999 15.344000
-28.518000 20.944000 15.799000
-28.540001 22.121000 14.803000
-27.528999 20.389000 15.671000
-26.760000 20.236000 15.318000
15.053000 23.462000 41.987999
15.257000 24.822001 42.073002
15.063000 24.205000 41.833000
-2.131000 15.438000 49.346001
-3.063000 15.194000 48.959999
-4.125000 15.080000 48.787998
-3.397000 14.497000 48.431999
-2.372000 14.768000 48.953999
-16.129000 30.371000 54.191002
-16.226000 29.759001 54.462002
-16.698000 30.009001 54.346001
-16.280001 30.789000 53.966000
-15.550000 30.709000 53.987000
-17.068001 30.341999 54.152000
-15.611000 30.097000 54.348999
-17.089001 29.618000 54.449001
-15.536000 29.569000 54.514999
-16.288000 29.289000 54.589001
3.340000 41.875999 15.228000
2.948000 41.646000 14.584000
3.867000 41.398998 15.175000
2.700000 42.185001 15.126000
3.344000 42.213001 15.918000
3.952000 41.723999 15.861000
3.430000 41.271000 14.539000
2.205000 41.962002 14.343000
2.556000 41.401001 13.978000
4.423000 40.661999 15.251000
4.466000 41.209999 15.772000
3.909000 40.730000 14.769000
-29.492001 29.711000 10.739000
-28.920000 29.055000 10.674000
-28.782000 30.214001 10.334000
-29.777000 28.986000 11.085000
-30.507999 29.466999 11.281000
-29.231001 30.854000 10.375000
-29.853001 30.302999 10.735000
0.354000 39.796001 48.417000
0.858000 39.780998 48.442001
0.536000 39.351002 48.733002
-0.006000 39.574001 48.561001
0.048000 40.112000 48.138000
0.641000 40.185001 48.148998
-0.222000 39.297001 48.813000
-0.454000 39.838001 48.383999
-11.439000 17.150000 21.186001
-10.554000 17.208000 21.535000
-10.855000 17.311001 20.561001
-11.683000 17.018000 21.938000
-12.430000 16.959999 21.205000
-12.026000 17.114000 20.530001
-23.778000 29.993999 8.366000
-24.040001 29.208000 8.693000
-23.309999 29.093000 8.261000
-23.143000 29.983999 7.957000
-23.427999 30.820999 8.008000
-24.086000 30.795000 8.395000
-23.664000 31.591000 8.058000
-30.246000 12.202000 37.839001
-29.438999 11.962000 37.069000
-30.587000 12.323000 38.602001
-29.711000 12.166000 38.511002
-28.808001 12.135000 38.217999
-30.318001 12.128000 36.827000
-30.961000 12.229000 37.411999
-31.520000 12.469000 38.103001
5.828000 14.503000 43.483002
5.305000 13.719000 43.175999
5.625000 13.595000 42.504002
4.807000 13.218000 42.896000
4.870000 13.850000 43.743000
5.393000 13.111000 41.445000
4.871000 12.884000 41.848000
-47.328999 30.997000 27.659000
-47.576000 31.736000 28.111000
-47.578999 30.723000 28.337000
-47.160000 30.009001 27.374001
-7.051000 32.979000 54.842999
-8.128000 32.865002 54.251999
-7.602000 32.740002 54.762001
-6.513000 33.263000 54.868000
-6.651000 33.512001 54.276001
-6.662000 32.868999 55.375000
-7.206000 32.606998 55.283001
-27.181999 30.924000 9.588000
-26.680000 31.700001 9.338000
-27.903000 30.764000 9.887000
-27.413000 29.837999 9.928000
4.171000 37.624001 49.085999
4.813000 37.549999 48.835999
4.671000 37.179001 49.046001
4.086000 37.175999 49.268002
3.642000 37.568001 49.308998
4.498000 37.966000 48.853001
-1.699000 13.642000 48.289001
-2.357000 14.235000 48.576000
-1.674000 14.183000 48.812000
-2.649000 13.895000 48.151001
-0.940000 13.878000 48.544998
-2.100000 13.376000 47.745998
-0.863000 14.543000 49.191002
-0.256000 14.130000 48.487999
-0.271000 14.577000 48.911999
11.007000 36.132000 24.042000
11.605000 35.714001 24.382999
11.091000 36.688000 23.278999
11.734000 37.116001 23.184999
-34.123001 23.091999 54.752998
-33.084999 23.205999 55.166000
-33.798000 22.475000 54.709000
-33.659000 23.775000 55.049999
-34.900002 22.530001 54.279999
-34.889000 23.311001 54.506001
2.259000 42.636002 45.473000
1.610000 42.567001 45.414001
2.077000 42.882000 44.993000
2.676000 42.862999 44.803001
2.997000 42.473000 45.105999
2.059000 42.334999 45.993000
2.700000 42.431999 45.805000
1.522000 43.020000 44.855000
1.980000 43.250000 44.539001
2.544000 43.172001 44.328999
1.100000 42.091999 45.837002
0.988000 42.368999 45.418999
1.036000 42.707001 45.008999
1.571000 42.199001 45.962002
-17.066000 43.500999 14.183000
-17.860001 43.411999 14.529000
-17.900000 43.082001 13.958000
-16.594999 43.284000 13.348000
-16.209999 43.618999 13.868000
-17.337999 43.102001 13.592000
-17.309999 43.796001 14.986000
-16.475000 43.882999 14.541000
-18.645000 42.639000 13.675000
-17.976000 42.756001 13.311000
-18.635000 43.033001 14.245000
-18.167999 43.597000 15.240000
-18.907000 43.209999 14.891000
-25.780001 31.240999 53.090000
-24.955000 31.372000 53.037998
-25.190001 30.917000 53.265999
-26.363001 30.808001 53.188000
-26.663000 31.222000 52.902000
-25.743999 30.601999 53.324001
-26.719999 30.372999 53.355999
-27.389000 30.740999 53.077000
-14.288000 45.433998 29.165001
-15.225000 45.361000 28.923000
-14.705000 45.483002 28.402000
-13.380000 45.626999 28.965000
-13.662000 45.500999 29.684999
-14.051000 45.576000 28.329000
-14.637000 45.365002 29.735001
2.112000 25.115999 48.661999
3.135000 24.610001 48.824001
3.214000 25.372999 48.463001
1.353000 24.506001 48.924999
1.066000 25.403000 48.750000
1.477000 25.964001 48.486000
2.518000 25.870001 48.301998
-10.435000 32.412998 53.584999
-9.848000 32.265999 53.909000
-10.338000 31.952000 54.026001
-10.967000 31.988001 53.696999
-11.076000 32.390999 53.394001
-10.666000 32.765999 53.207001
-10.069000 32.785999 53.452000
-10.020000 31.601000 54.422001
-10.824000 31.551001 54.084999
-9.469000 32.075001 54.278999
-9.617000 32.776001 53.611000
-9.243000 32.570999 53.929001
-20.377001 13.593000 39.866001
-19.410000 13.542000 40.701000
-21.424000 13.606000 40.424000
-20.346001 13.608000 40.852001
-21.339001 13.573000 39.673000
-19.811001 13.591000 39.188000
-21.507000 13.618000 38.991001
-19.402000 13.417000 41.457001
-18.193001 13.281000 41.039001
11.412000 40.750000 31.033001
11.768000 40.250999 30.782000
10.778000 41.352001 31.209999
10.574000 41.417999 30.462000
11.015000 40.823002 30.191999
10.284000 41.341000 29.657000
10.574000 40.736000 29.281000
11.322000 40.222000 29.879000
-12.731000 16.091000 32.766998
-11.726000 16.009001 33.441002
-11.778000 16.201000 32.432999
-12.753000 16.254999 31.799000
-13.852000 16.125000 32.061001
-13.854000 15.884000 33.022999
-12.900000 15.843000 33.615002
-10.783000 16.266001 32.157001
-11.790000 16.354000 31.450001
-10.865000 16.084999 33.167999
-12.209000 15.749000 34.222000
-7.366000 37.761002 6.724000
-7.184000 36.790001 6.656000
-6.634000 37.394001 6.915000
-6.731000 38.470001 7.056000
-7.678000 38.506001 6.933000
-6.548000 36.259998 7.099000
-10.377000 13.549000 40.233002
-10.316000 13.876000 38.713001
-10.914000 13.723000 38.938999
13.176000 36.015999 25.920000
13.024000 36.681999 25.753000
12.999000 35.724998 25.379999
-19.426001 41.910999 42.577000
-19.743999 42.224998 41.827999
-18.858000 41.610001 43.230000
-19.811001 41.428001 43.521000
-20.145000 41.673000 42.705002
-18.606001 42.069000 42.770000
-20.841000 38.240002 47.112999
-20.094000 38.584000 46.877998
-19.958000 38.174999 47.229000
-21.482000 38.500999 46.804001
-20.684999 38.665001 46.671001
-20.900000 37.853001 47.437000
-21.740000 37.869999 47.328999
-16.040001 12.510000 42.221001
-16.115999 12.817000 41.294998
-17.052999 12.958000 41.292000
-18.777000 44.520000 23.052999
-18.320000 44.693001 22.181999
-17.802000 44.859001 22.931000
-19.625999 44.264000 23.348000
-19.700001 44.224998 22.549999
-18.507000 44.658001 23.996000
-19.216999 44.382000 23.959000
-17.898001 44.823002 23.591999
-19.011000 44.421001 22.141001
-48.992001 29.004000 35.174999
-49.206001 28.190001 35.712002
-49.104000 27.858000 34.687000
-49.000999 29.297001 36.124001
-48.928001 28.615000 34.216000
-48.820999 29.660000 34.533001
-48.764999 30.197001 35.573002
-49.213001 26.430000 34.747002
-49.014999 27.046000 33.980000
-49.272999 27.212999 35.226002
-25.547001 39.360001 12.577000
-26.000000 38.779999 12.102000
-24.827999 39.405998 12.317000
-24.315001 39.991001 12.871000
-25.347000 39.800999 13.214000
-26.329000 39.063999 12.732000
-25.218000 38.838001 11.745000
-42.044998 29.326000 19.431999
-42.487999 29.566000 19.922001
-42.429001 28.591000 20.198000
-41.925999 28.278000 19.636000
-42.999001 30.181000 20.495001
-42.768002 30.933001 20.136999
-24.677000 13.063000 42.551998
-23.927999 13.283000 42.997002
-23.341000 13.405000 42.685001
-23.143999 13.436000 43.630001
-24.582001 13.024000 43.199001
-23.896000 13.381000 43.858002
-25.542999 12.920000 42.491001
-45.139000 36.776001 41.962002
-44.875999 37.349998 41.637001
-44.467999 37.868999 41.453999
-43.824001 38.041000 42.132000
-45.341999 36.992001 41.029999
-45.019001 37.498001 40.912998
15.132000 22.777000 39.210999
15.374000 23.327999 39.449001
15.641000 23.318001 38.599998
15.427000 22.735001 38.233002
14.842000 22.247999 39.143002
14.768000 22.688999 39.985001
14.299000 22.226999 40.362999
14.389000 22.544001 40.909000
14.321000 21.882999 39.792000
14.921000 23.183001 40.470001
-7.872000 24.997000 55.007000
-8.678000 25.230000 55.327999
-9.413000 25.535999 55.643002
-9.514000 26.025000 55.838001
-26.820999 12.919000 30.597000
-9.646000 16.705000 25.218000
-9.576000 16.650000 26.135000
-9.147000 16.739000 24.605000
-8.537000 16.532000 25.499001
-10.455000 16.657000 26.469999
-5.813000 32.405998 55.941002
-6.220000 32.694000 55.827000
-5.695000 32.983002 55.636002
-5.855000 31.737000 56.012001
-6.373000 31.992001 56.117001
-5.212000 32.666000 55.719002
-5.372000 31.981001 55.688000
9.856000 35.257999 22.757999
10.280000 34.853001 23.445999
10.196000 35.688000 23.201000
9.297000 34.963001 22.181999
9.601000 34.426998 22.785000
9.911000 36.199001 22.552000
9.487000 35.696999 22.073000
10.406000 36.307999 23.445999
10.599000 35.426998 23.820000
10.727000 34.308998 24.153000
10.069000 34.148998 23.489000
-5.971000 16.191000 11.793000
-5.187000 16.537001 12.097000
-5.449000 16.437000 11.237000
-6.556000 16.349001 10.894000
-6.605000 16.047001 11.852000
-5.910000 16.306999 12.708000
-4.496000 16.833000 11.674000
-4.708000 16.441000 10.705000
-5.452000 16.646999 10.491000
-10.040000 45.972000 26.299999
-9.594000 46.084999 25.587999
-9.061000 46.196999 25.112000
-10.365000 46.027000 25.649000
-10.069000 46.117001 24.881001
-10.038000 45.903999 26.962000
-10.669000 45.886002 26.980000
-10.920000 45.929001 26.260000
-0.774000 39.417999 48.755001
-0.957000 39.963001 48.139000
-0.562000 40.235001 47.919998
-1.138000 39.640999 48.480999
-0.518000 38.993000 49.081001
-1.216000 39.125000 49.061001
0.163000 38.958000 49.015999
12.178000 26.650999 28.003000
12.768000 26.330999 28.882999
12.556000 27.326000 28.381001
12.276000 25.850000 28.416000
11.947000 27.472000 27.541000
11.863000 26.719999 27.146999
12.044000 25.863001 27.631001
-34.562000 37.096001 15.859000
-35.490002 36.667999 15.964000
-34.898998 36.395000 15.435000
-34.965000 37.404999 16.316000
-33.709999 37.623001 15.892000
-34.228001 37.743999 16.233999
-34.111000 36.820999 15.358000
-34.403000 38.175999 16.691000
-35.033001 38.022999 16.806000
-35.634998 37.334999 16.531000
-29.832001 40.397999 18.080000
-30.722000 39.974998 17.551001
-29.848000 40.140999 17.495001
-29.518000 40.742001 18.733000
-28.927999 40.590000 18.023001
-31.011999 40.153000 18.030001
-31.671000 39.805000 17.764999
-31.621000 39.474998 17.121000
-30.705000 39.615002 17.014000
-14.025000 24.798000 54.466000
-20.823999 43.865002 31.332001
-21.358000 43.646999 31.938999
-21.561001 43.763000 31.204000
-20.240999 44.124001 30.794001
-20.134001 44.096001 31.551001
-20.622000 43.860001 32.118000
12.973000 35.595001 38.101002
12.344000 34.855000 38.713001
12.014000 35.735001 37.855999
14.064000 35.487999 38.417000
13.392000 35.025002 38.819000
13.439000 36.143002 37.709999
-10.614000 42.202999 41.402000
-11.872000 42.173000 41.132000
-9.764000 42.451000 41.132000
-9.996000 42.182999 41.650002
17.874001 32.396000 36.192001
17.660999 33.369999 35.875000
17.410999 32.414001 35.180000
18.066000 31.327999 36.820999
18.145000 32.262001 37.092999
17.745001 31.492001 35.875000
17.957001 33.201000 36.737000
17.421000 31.146000 35.205002
17.695000 30.226999 35.943001
-18.731001 15.944000 52.456001
-19.135000 15.895000 51.743999
-18.427999 15.558000 51.328999
-19.346001 15.873000 51.244999
-20.080999 16.239000 51.359001
-18.323000 15.646000 51.908001
-18.263000 16.181999 52.826000
-17.900000 15.942000 52.382000
-37.738998 39.737000 41.973999
-24.834999 17.457001 16.445000
-25.555000 17.729000 16.813000
-25.450001 17.143000 17.437000
-25.520000 18.302999 16.148001
-24.701000 18.075001 15.590000
-24.118999 17.361000 15.895000
-24.653000 16.655001 17.426001
-24.082001 16.791000 16.726000
-28.319000 27.319000 10.984000
-28.927999 27.882000 11.050000
-28.870001 26.812000 11.442000
-27.948000 26.617001 11.052000
-27.638000 27.629000 10.583000
-28.358000 28.195000 10.690000
-27.542999 25.738001 11.270000
-27.208000 26.607000 10.709000
-28.341000 25.987000 11.560000
-9.440000 16.455000 29.235001
-9.706000 16.487000 30.171000
-9.360000 16.490999 28.252001
-10.348000 16.542999 28.608000
-10.545000 16.510000 29.481001
