1230
86266.773438 27871.937500 24998.775391
86692.804688 27947.732422 20388.613281
86415.656250 27812.804688 20246.076172
70761.742188 66549.226562 47474.644531
70853.984375 66172.671875 47470.679688
70472.109375 66302.328125 47470.222656
86647.929688 27910.693359 21602.175781
86605.820312 27882.906250 21205.417969
86719.804688 27956.101562 21976.185547
86544.679688 27862.072266 22210.681641
86835.710938 28027.041016 22387.859375
86806.257812 28042.554688 23997.044922
86564.312500 27859.832031 23718.503906
86458.148438 27819.417969 24079.611328
86620.156250 27884.890625 23423.908203
86359.562500 27796.291016 24398.306641
83563.265625 28212.650391 29347.607422
83365.125000 28099.708984 29676.072266
83438.562500 28245.462891 30005.359375
83602.562500 28455.935547 30147.089844
83658.562500 28459.746094 29877.357422
83949.382812 28450.537109 10511.638672
83945.812500 28188.419922 28495.064453
83822.750000 28207.453125 28734.796875
83832.710938 28339.121094 29037.003906
80312.242188 14002.484375 35037.410156
84098.812500 28279.132812 10759.738281
83888.250000 28173.765625 10597.839844
84531.507812 28411.648438 28185.208984
84644.593750 28286.962891 27848.597656
84418.710938 28528.724609 28533.146484
84208.046875 28292.300781 28347.341797
84092.671875 28406.660156 28738.042969
68445.460938 64180.578125 47452.691406
68735.500000 64157.203125 47452.476562
68581.007812 63864.808594 47451.535156
60216.941406 61474.457031 42667.132812
60132.890625 61610.882812 42838.925781
60140.351562 61339.093750 42900.718750
84714.953125 28412.472656 11470.275391
84660.156250 28163.533203 11706.995117
84591.210938 27951.546875 11906.901367
84709.007812 28161.841797 27574.636719
84928.070312 28337.013672 27653.958984
84901.734375 28121.988281 27322.435547
84913.796875 28565.644531 28047.332031
84803.976562 28203.847656 12232.725586
84767.843750 28061.341797 12439.452148
84926.710938 28309.736328 12434.634766
84668.664062 27998.255859 12178.749023
84616.773438 27815.185547 12399.423828
84731.101562 27870.128906 12727.188477
84887.976562 28150.535156 12668.505859
85084.148438 28411.056641 12742.544922
84940.945312 28090.343750 12996.711914
85169.625000 28378.074219 13141.921875
69359.671875 67293.765625 47475.671875
69040.382812 67447.054688 47475.957031
85037.234375 28096.539062 13377.162109
85006.898438 27965.750000 13671.406250
85142.234375 28167.486328 13666.158203
85191.476562 28348.550781 27416.943359
85201.023438 28161.572266 27092.228516
85244.460938 28369.746094 13494.333008
85288.679688 28350.359375 13814.696289
85333.570312 28350.984375 14134.043945
76205.101562 65965.632812 41668.191406
76436.468750 65751.085938 41591.179688
76405.882812 65892.914062 41881.917969
85405.843750 28342.847656 14906.871094
85238.617188 28113.320313 14943.165039
85380.523438 28276.654297 15198.238281
85280.351562 28135.701172 15388.347656
85410.640625 28278.332031 15519.083984
85278.062500 28116.064453 15590.176758
69686.085938 67144.640625 47475.605469
69402.242188 66977.054688 47472.335938
85386.414062 28209.392578 15855.761719
85218.757812 28001.691406 16155.543945
85562.546875 28276.277344 16520.458984
85461.007812 28234.664063 16223.333008
85362.960938 28103.080078 16450.984375
85455.921875 28376.740234 27198.443359
85704.156250 28410.556641 26994.982422
85474.164062 28206.224609 26883.701172
71424.281250 67991.906250 47508.429688
85859.890625 28329.865234 17220.388672
85805.296875 28138.400391 26376.544922
85913.195312 28442.179688 26820.589844
86002.320312 28353.992188 26554.896484
85735.500000 28264.675781 26700.326172
86216.476562 28292.238281 18042.085938
86184.921875 28381.720703 17763.416016
86043.406250 28222.500000 17891.550781
86487.937500 28252.783203 25661.257813
86386.757812 28050.587891 25313.804688
86092.804688 28241.869141 26221.560547
86392.601562 28363.425781 26062.962891
86286.429688 28460.451172 26406.960938
86225.632812 28198.732422 18284.414062
86406.226562 28357.927734 18228.091797
86732.093750 28387.435547 18726.585938
86595.117188 28421.566406 18408.591797
86394.804688 28218.802734 18543.210938
67611.156250 68833.906250 47488.761719
67746.875000 68756.343750 47488.050781
86411.531250 28006.660156 19173.408203
86497.625000 28165.949219 18869.779297
86708.695312 28231.642578 19095.330078
86671.023438 28112.117188 19393.503906
86734.640625 28105.189453 24687.912109
86624.328125 27966.777344 24368.423828
86449.304688 27911.109375 24684.533203
86559.835938 28067.753906 25000.154297
86667.390625 28240.142578 25303.630859
86928.062500 28413.531250 25278.566406
86835.789062 28257.843750 24997.007812
86995.109375 28441.351562 19047.679688
86938.273438 28290.634766 19371.634766
87173.281250 28349.960937 19648.955078
86835.742188 28129.355469 19729.763672
86873.492188 28078.656250 20104.171875
87127.898438 28240.041016 19996.281250
87103.359375 28163.441406 20419.230469
86574.593750 27868.144531 20787.357422
86866.656250 28018.212891 20673.279297
75370.671875 17607.703125 34287.609375
75253.804688 17381.402344 34276.613281
75540.257812 17431.187500 34278.351562
86875.843750 28016.253906 20986.009766
87204.601562 28188.302734 21109.412109
87080.242188 28124.259766 20790.056641
86914.773438 28042.437500 21355.138672
67724.539062 68577.718750 47485.859375
86942.500000 28069.486328 21723.521484
87197.304688 28217.710938 21868.751953
87204.703125 28202.703125 21512.425781
86971.039062 28096.511719 22033.984375
87165.281250 28217.226563 22215.224609
86956.015625 28102.449219 22738.365234
86939.203125 28092.177734 22995.255859
86911.000000 28164.548828 24382.093750
87075.093750 28239.818359 24132.097656
87349.039062 28324.517578 20187.443359
87479.398438 28357.386719 20460.193359
87340.781250 28262.857422 20763.726562
87503.335938 28344.738281 21027.382812
87464.156250 28356.769531 21691.201172
87435.789062 28366.232422 22041.546875
87151.445312 28222.683594 22564.093750
87408.625000 28373.488281 22392.142578
87153.921875 28231.314453 22904.238281
87393.460938 28381.562500 22741.296875
67432.531250 68889.921875 47489.156250
87094.117188 28199.054688 23287.562500
86839.265625 28034.681641 23564.171875
87141.953125 28253.207031 23770.232422
74159.882812 69629.984375 44528.527344
74432.625000 69547.679688 44623.683594
74200.390625 69763.710938 44757.953125
83858.867188 28495.486328 29379.537109
83540.476562 28295.857422 29697.320312
83701.515625 28431.210937 29603.162109
83904.882812 28652.275391 29737.048828
68827.523438 67009.125000 47470.511719
69132.179688 66822.546875 47469.785156
68887.507812 66653.960938 47467.515625
83476.109375 28340.335937 30373.966797
83676.679688 28571.960938 30393.365234
84160.773438 28596.169922 10638.138672
84203.968750 28839.451172 10527.428711
84051.968750 28691.537109 10475.995117
84359.218750 28672.242188 28897.908203
84322.101562 28819.992187 29280.691406
84088.507812 28580.998047 29127.687500
84080.117188 28703.097656 29443.929688
67296.476562 67208.476562 41474.960938
67479.109375 67182.859375 41306.789062
67518.351562 67349.687500 41492.316406
84523.609375 28524.689453 11079.265625
84688.218750 28615.533203 28372.068359
84935.718750 28811.753906 28444.054688
84643.578125 28753.070312 28677.929688
84777.492188 28699.601562 11248.684570
84930.593750 28636.025391 11587.903320
84748.007812 28193.570312 11992.150391
84842.906250 28408.505859 11798.712891
85044.421875 28646.990234 11892.609375
84940.117188 28435.251953 12127.982422
85132.648438 28686.894531 12147.438477
85104.414062 28570.980469 12401.344727
85458.140625 28563.833984 27506.361328
85199.031250 28546.447266 27733.347656
85230.437500 28719.462891 27983.226562
85145.195312 28800.037109 28200.943359
85321.343750 28665.460938 12933.281250
85389.507812 28633.957031 13306.642578
85254.750000 28692.009766 12619.830078
85432.773438 28596.261719 13661.878906
85598.656250 28855.769531 13504.911133
85757.710938 28907.191406 14228.536133
85539.500000 28619.914062 14261.913086
85699.921875 28785.511719 14507.937500
85528.265625 28536.302734 14670.354492
85574.812500 28538.863281 15048.641602
85789.281250 28827.335938 14851.479492
72662.812500 68050.945312 47551.507812
85783.093750 28744.818359 15260.753906
85580.171875 28492.531250 15392.452148
85775.328125 28668.546875 15612.588867
69960.078125 66676.601562 47471.722656
69946.390625 66380.976562 47468.699219
69688.851562 66528.039062 47469.125000
85581.625000 28442.759766 15718.126953
85752.953125 28589.919922 15895.120117
85607.132812 28414.255859 16035.144531
85644.968750 28401.800781 16301.267578
85830.117188 28598.201172 16203.682617
70198.843750 66511.187500 47471.050781
85771.898438 28473.707031 16504.679688
85736.132812 28350.646484 16831.388672
85949.039062 28603.193359 27060.177734
85710.132812 28586.693359 27287.187500
85947.046875 28640.042969 16471.171875
85920.812500 28555.132812 16687.310547
86107.539062 28724.093750 16650.322266
70450.757812 66670.328125 47474.242188
86511.812500 28673.574219 26527.001953
86542.062500 28550.441406 26247.111328
86191.765625 28593.312500 26767.898438
86366.187500 28550.517578 17685.400391
86394.664062 28465.373047 17949.935547
86504.078125 28737.472656 17467.382812
86168.718750 28504.128906 17411.601562
86758.484375 28546.390625 25912.673828
86776.593750 28406.318359 25546.232422
70619.906250 67536.445312 47488.097656
70066.367188 68701.968750 47501.871094
86769.296875 28715.921875 26266.134766
86587.375000 28652.255859 17836.972656
86810.914062 28862.873047 17706.734375
86837.531250 28594.746094 18402.746094
87102.695312 28639.556641 18721.277344
87151.039062 28827.212891 18343.541016
87459.546875 28801.052734 18856.781250
87258.789062 28610.865234 19040.380859
87472.656250 28543.007813 19576.914062
87507.984375 28681.048828 19235.074219
87227.453125 28486.791016 19322.119141
87703.328125 28589.279297 19844.302734
87410.359375 28416.728516 19902.458984
87611.273438 28469.621094 20161.568359
71650.500000 67502.906250 47500.945312
87003.468750 28296.417969 24706.917969
68607.312500 64392.425781 47453.398438
68854.289062 64414.988281 47453.523438
87092.703125 28440.433594 25005.388672
87390.507812 28662.619141 25037.695312
87226.523438 28465.591797 24757.115234
87827.976562 28905.263672 19095.947266
87785.085938 28736.285156 19499.181641
87803.578125 28529.607422 20451.185547
87908.031250 28631.498047 20119.755859
66704.226562 67498.023438 47472.601562
87703.929688 28505.857422 21866.734375
87732.914062 28493.681641 21530.884766
87675.765625 28520.216797 22215.595703
87633.085938 28541.998047 22910.539062
87642.757812 28527.787109 22566.371094
68972.914062 64197.628906 47452.695312
68949.117188 63904.500000 47451.621094
87385.203125 28388.615234 23098.896484
87647.156250 28567.595703 23259.552734
87730.304688 28672.298828 23957.007812
87684.718750 28611.855469 23610.714844
87463.000000 28478.732422 23843.929688
87305.460938 28395.945312 24103.970703
87524.140625 28548.978516 24120.128906
66613.890625 64567.269531 47457.429688
66841.023438 64387.507812 47456.496094
66563.984375 64261.695312 47457.042969
88008.804688 28757.275391 19800.373047
88157.484375 28716.943359 20396.451172
88152.398438 28763.896484 20061.943359
87998.554688 28611.253906 20789.179688
87800.351562 28508.587891 21154.419922
88202.148438 28722.910156 21182.933594
87978.953125 28620.544922 21444.589844
87923.875000 28612.970703 21703.363281
88206.882812 28763.464844 21658.386719
87973.593750 28673.082031 22025.037109
87895.164062 28665.644531 22398.912109
87869.203125 28677.521484 22727.470703
88104.804688 28805.011719 22571.144531
83884.804688 28787.566406 30382.132812
83788.617188 28637.632812 30099.150391
84236.265625 28918.593750 29706.335938
84031.398438 28857.734375 30071.925781
84111.703125 29008.353516 30409.716797
84291.203125 29092.787109 30101.992188
67073.789062 64215.546875 47455.570312
66803.156250 64083.277344 47456.039062
84404.281250 29042.568359 10573.839844
84582.484375 29057.460938 10731.926758
84865.757812 28964.732422 28803.507812
84602.109375 28909.898438 29044.908203
84710.382812 29320.158203 29799.695312
84901.296875 29328.410156 29499.730469
84580.968750 29089.400391 29474.511719
84470.000000 29155.226562 29842.365234
85053.765625 29473.171875 10880.411133
84805.625000 29258.001953 10800.587891
85066.921875 29171.761719 11170.568359
85012.062500 28882.978516 11397.238281
85267.531250 29061.320312 11606.233398
85077.656250 29011.566406 28635.775391
85092.250000 29159.992188 28892.832031
84858.398438 29135.888672 29152.552734
85263.929688 28897.660156 11968.339844
70381.921875 66293.796875 39027.914062
70597.828125 66085.718750 38779.957031
70691.453125 66322.031250 39015.156250
85469.851562 28933.859375 12683.607422
85511.468750 29065.886719 12402.857422
85313.101562 28853.927734 12339.369141
73615.101562 64098.035156 47463.851562
73586.695312 63809.414062 47461.070312
73372.718750 63977.332031 47461.132812
85421.664062 28935.705078 28144.242187
85217.476562 28970.699219 28412.031250
85574.281250 28929.277344 13103.939453
85703.070312 29147.931641 12832.181641
85774.992188 29095.685547 13367.524414
85799.718750 29056.113281 13695.028320
85780.648438 29161.875000 13101.718750
85628.375000 28807.210938 13897.924805
85830.671875 29039.416016 13980.154297
86013.101562 29258.392578 13878.526367
85894.812500 29015.361328 14512.469727
85963.835938 29148.753906 14206.784180
85971.289062 28794.152344 27355.681641
85722.039062 28779.292969 27590.611328
73134.562500 63879.003906 47459.035156
73333.843750 63712.476562 47458.832031
73089.757812 63620.191406 47457.000000
86055.546875 29134.013672 14797.525391
86010.453125 29012.958984 15144.880859
85993.187500 28915.878906 15506.161133
86214.937500 29162.982422 15391.784180
70635.132812 67214.828125 47483.152344
70695.601562 66891.382812 47478.804688
85984.179688 28815.105469 15898.567383
86113.359375 28829.306641 16304.412109
68783.843750 67549.398438 47476.027344
68955.937500 67793.585938 47480.042969
86217.687500 28805.792969 27106.044922
86323.515625 28925.972656 16577.542969
86386.445312 29070.421875 16287.080078
68865.609375 67294.140625 47473.437500
86303.562500 28805.996094 16881.537109
86307.585938 28703.464844 17169.833984
86054.125000 28569.865234 16978.089844
86526.546875 28893.056641 17112.421875
86492.179688 28840.400391 26848.273438
86760.007812 29076.486328 26925.417969
86816.945312 28908.345703 26566.367187
86232.265625 28999.562500 27408.669922
86482.578125 29025.994141 27169.984375
86525.171875 29010.134766 16799.689453
86759.921875 29109.593750 17006.832031
87022.414062 29214.429688 17222.955078
86778.734375 28985.851562 17348.789062
87057.421875 29089.361328 17577.585938
87077.078125 29175.324219 26695.277344
87061.046875 28902.361328 26221.732422
87387.445312 29065.335937 18139.970703
87335.039062 29183.886719 17797.666016
87097.218750 28962.341797 17940.630859
87563.054688 29249.896484 17979.640625
87300.843750 28810.404297 18610.453125
87503.398438 28975.128906 18504.296875
87010.125000 28572.216797 25549.416016
87146.187500 28561.912109 25262.958984
87129.671875 28774.201172 25836.136719
87452.765625 28926.923828 25649.003906
87280.179688 28724.166016 25446.722656
87626.875000 29120.226562 25796.705078
87374.343750 29020.767578 25988.240234
65800.742188 66463.195312 47468.246094
66148.648438 66393.953125 47465.980469
65948.468750 66131.351562 47465.554688
87322.898438 29166.964844 26349.337891
87684.320312 29196.867188 18249.181641
87834.523438 29146.144531 18539.724609
87722.789062 28985.888672 18763.783203
87990.382812 29106.511719 18811.001953
87924.929688 28986.564453 24873.568359
87697.601562 28796.246094 24753.296875
87712.320312 28912.076172 25110.589844
87520.296875 28856.912109 25345.371094
87757.429688 29080.298828 25474.416016
88306.429688 29266.527344 18810.771484
88149.031250 29081.064453 19062.753906
88163.375000 28949.976562 19434.724609
68653.882812 67332.273438 47473.140625
88321.203125 28900.949219 19843.500000
88181.242188 28897.269531 23153.798828
88352.328125 28968.626953 22770.783203
88076.093750 28812.166016 22855.679688
88051.046875 28901.410156 24075.105469
87963.757812 28802.687500 23709.578125
66987.140625 66878.765625 41290.964844
67197.742188 66868.250000 41079.617188
67240.656250 67036.015625 41292.730469
88032.109375 28967.847656 24509.539062
88407.226562 29202.843750 24422.089844
69699.937500 66835.085938 47472.218750
88198.062500 29162.115234 24813.314453
87994.867188 29127.423828 25148.292969
88644.984375 29016.626953 20039.494141
88359.828125 28850.156250 20152.775391
88519.304688 28895.291016 20425.990234
88352.671875 28792.005859 20771.855469
88524.859375 28906.636719 21402.810547
88526.164062 28881.554688 21057.224609
88543.296875 28962.494141 21802.265625
88825.085938 29084.408203 21562.234375
67450.054688 26739.105469 47482.019531
67515.250000 26274.273438 47482.382812
67150.578125 26427.859375 47485.460938
70604.218750 63224.429688 47450.394531
70772.546875 63001.187500 47449.796875
70527.468750 62983.628906 47449.511719
88657.351562 29213.148438 23413.128906
88379.984375 29041.052734 23421.632812
88495.304688 29136.199219 23659.400391
88893.960938 29082.328125 20418.796875
88696.859375 28964.898438 20771.701172
88839.937500 29049.632812 21147.730469
84615.125000 29264.064453 10606.775391
84832.039062 29478.968750 10649.340820
84837.562500 29509.955078 30067.341797
84560.500000 29318.826172 30127.464844
84374.382812 29247.882812 30451.271484
84718.015625 29538.876953 30498.673828
69714.750000 66293.054688 39106.863281
70040.960938 66288.250000 39064.316406
69897.062500 66477.937500 39282.742188
85207.710938 29569.185547 29575.914062
85136.320312 29350.279297 29210.769531
84948.203125 29483.248047 29779.941406
74102.210938 54522.238281 47454.628906
74381.976562 54635.308594 47454.441406
74361.882812 54302.148438 47454.503906
85341.414062 29334.822266 11345.252930
85438.562500 29119.904297 11889.324219
85514.265625 29286.173828 11689.428711
85352.171875 29342.332031 28920.375000
85285.328125 29151.335938 28650.160156
85435.164062 29551.505859 29223.078125
85727.171875 29464.642578 11781.423828
85614.710938 29281.136719 11980.265625
85818.929688 29470.781250 12054.492188
85683.921875 29274.044922 12290.658203
85896.593750 29482.224609 12305.958008
85640.343750 29159.119141 12559.463867
85917.890625 29337.634766 12952.962891
85858.179688 29366.876953 12599.257812
85946.156250 29300.837891 13254.898438
85638.585938 29522.658203 28915.486328
85845.390625 29478.042969 28602.656250
85545.257812 29305.210938 28632.416016
86110.000000 29560.150391 12803.452148
86124.796875 29501.941406 13133.253906
86127.265625 29450.539062 13429.113281
86125.500000 29409.210938 13672.918945
86292.125000 29580.730469 13627.209961
86241.695312 29491.361328 13887.240234
86246.945312 29272.646484 15061.284180
86290.039062 29387.117188 14738.784180
85720.875000 29208.814453 28283.220703
86056.820312 29427.898438 28286.402344
86010.554688 29206.769531 27976.148438
73552.921875 66116.187500 47502.781250
73704.539062 65900.328125 47498.847656
73439.351562 65836.679688 47489.933594
86446.281250 29399.302734 15316.888672
86479.312500 29512.943359 14987.232422
73400.289062 66410.039062 47510.449219
73258.843750 66077.789062 47493.648438
86398.398438 29280.216797 15601.886719
86469.937500 29244.388672 15943.867188
86212.140625 29074.367188 15728.853516
86677.023438 29298.007812 16317.678711
86747.523438 29460.751953 15997.003906
86525.312500 29104.919922 16534.378906
86460.734375 29184.082031 27449.636719
86734.515625 29215.519531 16681.212891
86987.906250 29329.626953 16880.650391
86955.609375 29434.119141 16546.455078
86967.679688 29279.695312 27004.673828
87084.148438 29511.871094 27233.320312
87184.812500 29395.556641 26920.736328
86743.132812 29284.634766 27281.351562
87216.703125 29548.517578 16750.410156
87255.476562 29438.476562 17088.742188
87482.679688 29653.269531 16950.275391
87301.171875 29316.685547 17445.121094
87606.203125 29413.281250 17685.064453
87534.164062 29540.439453 17298.464844
87802.921875 29641.234375 26507.687500
87612.101562 29394.035156 26348.775391
87430.539062 29438.279297 26670.423828
87822.453125 29643.187500 17478.613281
87891.093750 29551.277344 17766.949219
87807.609375 29389.019531 18000.738281
87906.632812 29332.201172 25786.820312
88018.523438 29359.544922 18302.500000
88322.968750 29556.964844 18221.759766
88091.070312 29555.984375 17985.660156
88091.148438 29257.564453 18593.564453
88299.898438 29407.843750 18501.941406
88081.382812 29310.652344 25450.187500
88219.734375 29622.919922 25877.878906
87877.742188 29493.539063 26143.023438
88701.851562 29537.142578 18628.208984
88548.445312 29561.730469 18428.984375
88503.578125 29434.925781 18652.011719
88654.148438 29394.417969 18898.468750
88439.531250 29181.986328 19169.648438
88512.500000 29095.814453 23111.808594
88517.359375 29373.794922 24774.158203
88694.546875 29408.660156 24469.535156
88615.335938 29554.851562 25090.833984
88299.843750 29341.970703 25128.406250
88911.945312 29452.681641 19041.023438
88760.796875 29302.990234 19249.521484
70893.601562 63270.625000 47450.894531
71201.437500 63289.898438 47451.332031
71055.867188 63017.269531 47450.164062
88904.226562 29303.681641 22843.867188
88853.687500 29241.835938 22578.306641
88671.351562 29162.822266 22817.708984
88980.765625 29419.931641 23444.617188
88805.953125 29273.792969 23108.382812
88989.578125 29492.298828 23899.425781
88717.789062 29291.212891 23755.414062
88418.476562 29131.292969 24001.853516
88705.445312 29344.171875 24138.705078
89274.273438 29638.691406 23657.128906
88951.484375 29547.115234 24306.343750
88854.312500 29592.925781 24720.855469
88586.382812 29107.601563 19580.886719
88840.085938 29161.412109 19802.433594
88984.960938 29175.343750 20057.394531
89293.343750 29340.781250 20000.480469
89057.593750 29267.431641 19797.167969
89167.492188 29229.630859 20284.710938
89452.789062 29367.230469 20392.460938
89029.382812 29132.210938 20795.583984
89189.562500 29218.191406 20543.775391
89373.921875 29312.787109 20813.988281
89151.304688 29204.423828 21063.845703
89109.585938 29212.810547 21367.957031
65657.132812 66847.421875 47471.570312
65664.218750 67242.023438 47474.199219
65868.250000 66896.359375 47470.562500
89077.609375 29237.634766 21679.460938
89222.390625 29357.587891 21935.234375
89541.375000 29526.796875 21874.437500
89377.492188 29386.710938 21563.625000
74637.031250 61773.449219 47456.699219
74924.093750 61903.148438 47459.140625
74841.718750 61653.113281 47457.710938
89099.570312 29398.166016 22687.818359
89726.132812 29675.824219 22150.978516
89406.812500 29505.136719 22213.998047
89566.437500 29639.710938 22497.824219
89546.953125 29507.335938 19789.097656
89579.210938 29463.419922 20094.246094
89773.203125 29534.212891 20304.550781
89805.351562 29591.513672 19978.740234
89749.984375 29509.820312 20687.843750
89382.656250 29340.634766 21188.726562
89618.210938 29452.226562 21014.281250
89644.679688 29498.134766 21311.675781
89914.351562 29617.947266 21068.068359
89896.078125 29656.349609 21448.078125
89662.867188 29549.708984 21596.365234
85109.359375 29659.996094 29948.664062
85007.750000 29691.884766 30247.636719
85077.148438 29825.570313 30546.630859
85310.203125 29879.962891 30190.714844
85321.078125 29919.492187 10785.156250
85376.531250 29638.951172 11072.895508
85588.289062 29793.601562 29528.744141
85362.726562 29781.646484 29831.560547
85389.679688 30056.542969 30587.187500
85608.546875 29971.746094 29918.455078
85724.257812 29812.289063 11292.585938
85811.937500 29640.060547 11608.990234
85986.757812 29846.033203 11595.243164
85932.281250 29654.130859 11842.905273
85891.976562 30040.550781 29665.197266
85918.695312 29894.386719 29305.281250
86372.375000 30104.394531 11887.805664
86149.703125 29874.755859 11869.071289
86300.609375 29942.716797 12117.730469
86059.929688 29690.789062 12138.609375
86248.523438 29817.763672 12345.226562
72592.859375 65926.523438 47479.289062
72585.671875 65566.320312 47473.691406
72303.328125 65723.703125 47473.929688
86321.781250 29653.888672 13342.605469
86334.367188 29726.087891 13021.151367
86528.078125 29809.933594 13596.521484
86533.031250 29869.171875 13253.198242
86294.500000 29878.162109 28820.914062
85959.093750 29729.675781 28928.648438
86157.921875 29943.958984 29110.658203
86420.250000 29672.746094 13839.761719
86620.937500 29844.207031 13947.888672
86704.554688 29738.068359 14898.421875
86919.304688 29948.000000 14786.752930
86713.921875 29816.333984 14588.107422
86509.492188 29611.708984 14679.293945
86689.343750 29637.650391 15234.691406
86296.625000 29415.707031 28003.589844
86312.328125 29591.234375 28279.730469
86557.351562 29637.458984 28079.470703
86159.507812 29655.337891 28563.714844
86923.460938 29868.712891 15109.306641
86932.664062 29775.560547 15460.174805
86664.960938 29503.015625 15631.828125
86997.976562 29702.144531 15857.022461
86953.234375 29549.953125 16218.403320
86875.320312 29531.978516 27521.607422
87123.718750 29750.337891 27579.072266
86846.476562 29697.808594 27836.203125
86578.203125 29421.433594 27694.417969
87173.687500 29913.980469 15611.528320
87363.914062 29949.402344 15907.840820
87181.460938 29745.337891 16144.009766
87422.210938 29860.416016 16289.758789
87191.804688 29652.318359 16429.167969
87448.343750 29759.068359 16619.273438
87649.218750 29727.201172 26859.541016
87373.921875 29613.027344 27031.552734
87327.382812 29757.009766 27329.507812
87688.281250 29959.900391 16485.375000
87709.289062 29852.669922 16812.826172
87943.179688 30036.230469 16683.291016
87752.773438 29748.402344 17140.873047
88032.156250 29840.888672 17301.162109
87962.929688 29931.078125 16992.998047
88359.703125 29966.287109 17384.900391
88141.429688 29739.761719 17653.722656
88349.789062 29952.158203 26286.087891
88101.890625 29729.968750 26243.007813
88082.812500 29881.814453 26532.857422
88444.500000 29871.058594 17686.791016
88709.492188 30034.691406 17568.847656
88650.742188 29871.195312 17876.341797
88605.343750 29716.978516 18159.738281
88374.492188 29722.599609 17934.382812
72243.203125 66616.421875 47488.671875
72489.820312 66451.250000 47488.527344
72231.734375 66322.929688 47482.500000
88524.210938 29894.576172 25943.072266
88523.382812 29742.986328 25660.767578
88892.601562 29991.332031 17822.183594
88883.445312 29867.785156 18080.087891
89176.109375 29894.939453 18265.007812
88854.234375 29702.937500 18409.519531
89123.273438 29749.195312 18549.355469
88950.000000 29586.572266 18760.537109
88909.210938 29755.865234 25071.046875
89096.421875 29796.281250 24823.927734
88373.835938 29537.984375 25467.117188
88702.421875 29738.726562 25378.000000
88979.687500 29926.810547 25346.607422
88775.734375 29918.121094 25632.339844
89385.648438 29858.599609 18536.861328
89266.000000 29709.412109 18783.849609
89480.726562 29691.958984 19068.707031
89522.750000 29817.119141 18775.509766
89046.234375 29421.785156 19284.658203
89290.632812 29535.439453 19277.460938
89154.968750 29564.591797 19031.890625
89080.578125 29429.800781 23031.044922
89374.789062 29579.542969 22844.189453
89303.523438 29594.556641 23254.873047
89274.843750 29724.667969 24103.050781
89543.429688 29842.408203 23795.714844
89370.085938 29969.318359 24738.853516
89160.367188 29746.525391 24516.134766
89768.492188 29863.435547 18923.857422
89535.343750 29594.951172 19437.804688
89242.328125 29416.232422 19587.289062
89837.703125 29774.541016 19282.935547
89809.554688 29662.357422 19645.908203
89706.273438 29770.945312 22806.507812
89871.429688 29809.275391 22455.310547
72015.093750 65863.398438 47473.789062
72264.992188 66033.460938 47478.246094
89875.007812 29942.041016 23176.441406
89559.906250 29730.230469 23105.847656
89550.164062 29777.466797 23430.226562
71984.476562 66162.609375 47477.917969
90062.953125 29735.708984 19849.949219
90050.812500 29793.611328 19551.187500
90307.687500 29821.523438 20068.230469
90344.257812 29904.236328 19669.343750
90033.054688 29673.001953 20185.230469
90234.617188 29758.912109 20421.546875
89982.429688 29627.724609 20470.431641
90091.257812 29686.240234 20731.402344
69472.164062 44231.171875 10113.210938
69620.515625 44549.339844 10097.744141
90109.992188 29882.402344 22074.226562
90128.617188 29816.029297 21638.380859
89846.664062 29684.847656 21795.220703
90606.320312 29982.744141 19950.191406
90534.812500 29916.015625 20321.914062
90428.031250 29865.265625 20729.167969
90208.226562 29765.728516 20989.488281
90163.671875 29779.302734 21288.005859
85163.460938 29976.679688 10593.283203
85363.500000 30159.216797 10658.707031
85879.406250 30341.812500 11013.978516
85626.453125 30103.775391 10948.255859
85954.101562 30070.710938 11304.846680
85909.156250 30325.529297 30389.398438
86132.429688 30367.259766 30126.335938
85883.390625 30182.224609 30027.314453
86199.914062 30305.234375 11358.957031
86204.648438 30073.212891 11618.244141
86502.835938 30243.974609 29318.806641
86407.265625 30077.914063 29085.244141
86213.273438 30121.054687 29418.519531
65535.839844 67133.898438 47474.312500
65434.695312 67018.359375 47474.203125
86515.195312 30163.390625 12127.479492
86453.898438 30017.287109 12366.973633
86640.851562 30215.703125 12341.600586
86660.281250 30137.716797 12633.919922
71701.625000 66287.109375 47477.539062
71738.320312 65994.914062 47473.636719
71471.968750 66104.429688 47473.261719
86817.960938 30056.662109 13732.540039
86706.453125 30000.451172 13436.134766
86860.875000 30036.691406 14095.241211
86592.078125 30038.304688 28783.408203
86499.335938 29814.142578 28462.455078
86690.570312 30237.505859 29070.052734
86568.937500 29965.242188 12945.546875
86745.820312 30080.826172 13182.952148
86917.875000 30197.914062 13420.692383
87090.164062 30306.234375 13687.991211
87018.507812 30201.191406 13941.506836
86938.500000 30036.800781 14451.996094
86681.773438 29846.164062 14276.815430
87100.867188 30117.429688 14696.644531
87200.453125 30241.398438 14497.006836
87139.929688 30078.214844 14965.715820
86815.539062 29880.048828 28201.666016
86776.898438 30017.896484 28514.728516
86895.257812 30213.421875 28759.621094
87091.570312 30152.261719 28371.937500
87167.390625 30004.328125 15299.155273
87422.812500 30117.386719 15515.636719
87126.804688 29957.859375 27945.478516
87479.250000 30037.068359 27615.371094
87401.835938 30214.968750 28061.261719
87689.843750 30203.160156 15774.421875
87726.281250 30357.091797 15372.027344
70191.890625 66085.007812 38832.839844
87676.734375 30071.923828 16141.416992
87941.968750 30150.630859 16359.331055
87800.890625 30123.865234 27328.818359
87786.093750 30264.921875 27601.210938
87577.671875 29871.648438 27195.595703
87679.500000 30324.693359 27870.576172
88183.820312 30093.388672 16870.304688
88188.023438 30207.462891 16564.541016
88185.265625 29994.093750 17128.066406
88430.984375 30251.419922 16761.179688
88413.750000 30125.511719 17066.109375
87840.710938 29968.236328 27007.796875
87886.539062 29849.044922 26745.107422
88621.226562 30134.572266 17260.736328
88724.164062 30299.390625 16965.154297
88511.804688 30155.734375 26417.660156
88649.265625 30122.705078 26173.732422
88305.125000 30094.089844 26592.806641
88525.656250 30294.119141 26637.878906
88304.281250 30251.718750 26866.740234
89137.796875 30302.359375 25827.355469
89046.648438 30102.945312 25597.439453
88847.921875 30108.353516 25880.291016
69300.546875 65927.898438 38765.246094
69512.734375 66110.539062 38934.339844
69195.445312 66131.921875 38992.062500
89327.242188 30142.662109 17846.548828
89352.531250 30054.357422 18058.722656
89611.000000 30204.171875 17957.091797
89667.531250 30219.396484 24804.302734
89439.742188 30153.152344 25079.144531
89235.757812 30114.837891 25340.742188
89474.390625 30321.423828 25381.193359
89175.046875 29947.371094 25067.728516
89847.492188 30158.671875 18274.412109
89516.414062 30021.144531 18277.953125
69969.234375 65886.460938 38652.160156
70319.421875 65865.953125 38590.679688
89724.468750 29975.367188 18584.519531
89759.632812 29941.609375 23567.125000
89593.476562 29955.242188 24137.138672
89880.375000 30180.580078 24187.574219
89639.820312 30082.224609 24467.816406
72721.773438 66254.875000 47487.847656
72460.804688 66198.687500 47482.632812
69136.773438 66225.773438 47464.738281
90017.953125 30015.472656 18795.888672
90014.570312 30118.720703 18531.011719
90301.570312 30065.455078 19014.044922
90259.984375 30169.396484 18680.869141
90179.312500 29914.333984 19317.642578
90024.453125 29923.277344 19063.167969
90022.648438 30122.583984 23559.578125
90271.109375 30218.869141 23235.802734
89816.976562 30046.722656 23858.417969
90099.726562 30262.677734 23894.179688
90615.171875 30194.732422 19078.123047
90490.562500 30219.193359 18837.109375
90487.570312 30051.773437 19337.496094
68902.703125 65781.773438 47460.804688
90677.632812 30074.925781 19612.583984
90768.921875 30190.552734 19335.695312
90392.437500 29934.277344 21462.882812
69504.679688 65675.632812 47461.625000
69805.531250 65596.500000 47461.894531
69597.328125 65376.988281 47459.800781
90470.093750 30081.287109 22005.361328
90347.632812 29963.259766 21768.279297
90520.351562 30229.080078 22568.011719
90642.242188 30237.189453 22244.669922
90353.070312 30074.994141 22333.242188
73015.398438 18789.607422 46176.488281
73316.867188 18689.443359 46164.199219
73098.039062 18502.500000 46162.937500
90156.351562 30073.744141 22939.654297
90255.304688 30077.296875 22653.917969
90400.617188 30220.263672 22879.910156
90853.078125 30307.931641 19113.597656
91023.585938 30335.257812 19323.937500
90918.351562 30212.806641 19550.250000
90904.437500 30151.488281 19838.185547
90838.101562 30078.107422 20192.880859
91166.539062 30263.767578 20088.878906
71965.171875 66841.476562 47490.242188
71959.945312 66471.351562 47482.578125
90766.914062 30037.246094 20560.773438
91023.179688 30170.642578 20408.970703
90708.515625 30035.140625 20941.294922
91048.593750 30206.230469 20770.781250
69631.492188 65906.578125 38708.207031
70082.781250 65516.390625 47462.121094
69886.867188 65312.722656 47460.148438
90836.609375 30186.394531 21443.173828
90919.476562 30184.189453 21161.644531
90651.921875 30053.783203 21299.509766
90427.257812 29901.103516 21119.794922
90626.757812 30106.509766 21661.865234
85579.210938 30428.058594 10683.623047
75717.703125 61770.824219 47465.230469
75842.296875 61591.796875 47465.695312
75576.140625 61548.449219 47462.808594
85805.203125 30651.820312 10739.296875
86125.468750 30585.361328 11066.052734
86425.296875 30531.066406 11405.735352
86352.015625 30802.296875 11119.200195
86345.859375 30510.150391 30173.449219
86335.140625 30418.195312 29947.953125
86628.062500 30519.531250 11682.042969
86585.453125 30326.765625 11914.645508
86793.078125 30546.113281 11945.114258
70165.250000 65249.113281 47460.503906
86588.046875 30583.941406 29993.291016
86471.835938 30372.500000 29647.710938
86493.429688 30669.207031 30370.296875
86721.843750 30370.255859 12158.462891
86837.656250 30383.654297 12431.779297
86936.257812 30578.500000 12204.457031
86964.078125 30393.222656 12768.054688
87051.593750 30736.302734 29676.468750
86969.859375 30579.419922 29441.662109
86783.687500 30569.417969 29675.353516
86738.562500 30408.955078 29376.562500
82352.664062 15308.715820 37266.339844
82158.125000 15064.569336 37465.371094
82319.015625 15294.168945 37568.800781
86966.703125 30302.623047 13116.458008
87187.945312 30451.765625 13371.975586
87567.117188 30758.525391 13467.207031
87380.671875 30607.291016 13438.900391
87373.398438 30548.433594 13683.783203
87236.171875 30377.628906 13976.169922
87502.210938 30573.199219 14045.287109
68928.625000 66385.132812 47465.394531
68832.226562 66105.156250 47462.953125
68397.023438 65783.937500 47459.917969
68652.632812 65859.976562 47460.781250
68654.617188 65550.765625 47458.902344
87346.453125 30400.857422 14284.684570
87098.468750 30219.322266 14209.309570
87311.406250 30256.832031 14776.460938
87214.937500 30399.441406 28717.466797
87017.507812 30454.017578 29104.621094
87367.226562 30629.732422 28993.169922
87251.187500 30728.373047 29371.996094
87639.226562 30579.882812 14419.786133
87776.054688 30759.824219 14110.215820
87849.968750 30528.732422 15067.178711
87902.148438 30661.601562 14731.310547
87595.828125 30441.755859 14822.495117
87427.710938 30242.009766 15120.246094
87647.171875 30398.308594 15093.628906
87879.953125 30559.796875 28040.228516
87906.429688 30430.359375 27740.673828
87613.781250 30414.519531 28151.929688
87692.421875 30577.542969 28377.048828
87419.007812 30388.447266 28394.890625
87511.937500 30580.689453 28670.943359
88182.609375 30727.101562 15033.588867
68082.742188 66735.539062 47466.277344
68413.398438 66736.812500 47466.933594
68279.421875 66385.273438 47463.824219
87957.148438 30274.519531 16024.610352
88235.007812 30449.953125 15941.408203
87993.046875 30409.591797 15683.000977
88282.726562 30578.566406 15635.492188
88434.382812 30369.031250 16447.822266
88198.320312 30324.255859 16250.884766
88571.718750 30641.267578 27182.947266
88545.828125 30461.486328 26901.669922
88313.843750 30425.164062 27157.660156
88343.375000 30614.126953 27456.523438
88965.617188 30520.000000 16668.160156
89061.101562 30696.429688 16317.193359
88709.851562 30546.619141 16302.459961
88652.132812 30399.781250 16631.482422
88912.851562 30232.535156 17305.091797
89085.171875 30415.580078 17042.617188
88766.226562 30491.878906 26650.396484
88729.226562 30315.617188 26397.792969
88794.250000 30669.875000 26920.287109
89638.726562 30658.373047 16998.814453
89507.851562 30757.402344 16641.785156
89299.351562 30589.201172 16840.759766
89094.585938 30151.835938 17638.363281
89439.835938 30288.781250 17629.712891
89245.148438 30344.037109 17347.240234
89562.031250 30471.306641 17343.615234
89712.007812 30699.533203 25712.458984
89721.054688 30555.189453 25443.373047
89450.164062 30485.277344 25713.707031
89248.507812 30547.457031 26089.667969
68656.093750 66777.101562 47467.898438
68636.750000 66442.187500 47465.062500
89424.171875 30766.781250 26211.144531
89230.015625 30724.781250 26405.667969
69154.390625 66519.140625 47467.199219
69415.218750 66364.796875 47466.750000
73945.453125 65994.148438 47510.828125
73884.984375 65716.875000 47497.550781
70023.789062 65793.093750 47464.007812
70287.882812 65972.929688 47466.351562
89780.125000 30422.212891 17640.832031
89889.046875 30618.453125 17316.923828
89996.882812 30361.855469 17971.062500
90169.640625 30602.042969 17617.986328
90217.648438 30298.220703 18333.597656
90200.390625 30443.619141 24234.666016
89916.906250 30317.210938 24532.156250
90167.859375 30556.291016 24630.302734
89927.304688 30450.656250 24867.521484
74088.843750 65536.164062 47496.914062
73821.117188 65432.871094 47486.753906
90135.437500 30648.716797 24925.517578
89954.671875 30613.992188 25177.667969
90554.164062 30725.968750 17737.341797
90352.984375 30511.779297 18000.527344
90501.460938 30327.451172 18585.134766
90342.460938 30450.500000 23908.925781
90517.820312 30533.480469 23736.394531
90311.507812 30344.740234 23621.044922
90642.828125 30633.478516 18045.214844
90550.562500 30476.193359 18298.580078
90871.859375 30645.197266 18294.701172
90729.835938 30469.199219 18532.236328
90752.398438 30360.964844 18828.791016
90975.500000 30555.671875 18649.673828
91079.375000 30479.138672 18998.189453
90545.265625 30367.183594 23075.988281
90668.937500 30383.908203 22804.810547
69246.906250 65538.960938 38382.042969
69539.992188 65527.441406 38337.773438
69421.562500 65721.906250 38542.148438
90592.382812 30489.898438 23395.419922
91231.945312 30652.457031 18762.587891
91400.765625 30657.103516 19001.410156
91305.585938 30504.193359 19300.863281
73619.945312 65624.843750 47487.691406
91190.695312 30345.796875 19651.640625
91236.554688 30359.875000 21122.582031
91036.632812 30292.890625 21385.273438
91243.046875 30438.203125 21488.560547
90954.476562 30311.667969 21698.970703
90807.632812 30401.039062 22489.107422
90947.093750 30564.316406 22750.212891
90967.789062 30417.791016 22118.587891
91097.609375 30586.126953 22441.738281
90794.914062 30541.986328 23062.705078
91465.515625 30446.746094 19911.099609
91526.882812 30548.816406 19574.353516
91438.671875 30399.189453 20205.800781
91277.367188 30309.757812 20445.341797
72618.851562 62062.269531 47450.085938
72505.593750 61758.910156 47449.308594
72306.460938 61997.488281 47449.410156
91392.906250 30393.343750 20759.183594
91514.492188 30492.576172 21000.931641
91496.015625 30538.292969 21281.265625
91743.054688 30634.273438 21075.634766
91493.296875 30613.660156 21596.281250
91246.101562 30523.404297 21830.701172
91976.937500 30697.236328 20065.722656
91691.625000 30541.123047 20148.648438
91911.210938 30652.488281 20444.974609
91571.468750 30468.951172 20458.318359
91688.953125 30554.921875 20761.003906
86061.601562 30881.101562 10812.708984
85911.406250 31023.218750 10599.259766
85814.265625 30914.330078 10586.914062
86290.843750 31091.210938 10862.958008
74197.218750 66121.281250 47526.054688
74481.718750 66228.007812 47539.894531
74414.789062 65924.468750 47524.265625
73541.500000 65335.140625 47479.332031
86828.625000 30997.041016 11436.190430
86630.656250 30762.767578 11430.294922
86828.382812 30748.628906 11701.106445
87004.062500 30768.437500 11972.393555
87035.820312 30975.761719 11718.702148
87519.078125 31055.556641 12453.731445
87378.710938 31017.367188 12247.284180
87336.281250 30840.957031 12538.892578
87129.851562 30920.990234 29983.738281
86875.804688 30726.759766 29911.208984
86811.578125 30812.578125 30224.607422
87077.312500 31067.556641 30421.248047
87422.187500 30785.458984 12909.970703
87576.203125 31001.904297 12704.135742
67910.039062 66310.726562 47462.820312
67869.843750 65935.562500 47460.570312
67656.750000 66123.960938 47461.656250
87276.523438 30882.156250 29673.501953
87460.617188 30936.486328 29515.339844
87641.968750 30968.855469 12953.481445
87595.507812 30859.541016 13174.226562
68170.687500 66031.398438 47461.207031
87392.492188 30666.503906 13231.473633
87910.789062 30917.306641 13881.650391
87820.203125 30928.089844 13592.370117
87656.570312 30750.513672 13796.971680
71758.351562 61683.835938 47448.160156
71823.335938 61378.417969 47447.839844
87842.156250 30938.599609 28918.488281
87777.343750 30760.951172 28640.878906
87617.289062 30754.021484 28886.033203
87593.039062 30885.306641 29201.191406
88068.414062 31083.234375 13687.441406
88152.562500 31053.863281 13973.926758
88007.382812 30912.753906 14129.588867
87960.695312 30802.630859 14390.172852
88256.687500 31014.957031 14294.073242
88208.578125 30866.246094 14656.969727
88177.484375 30789.947266 28041.937500
88125.156250 30598.935547 27744.580078
87969.179688 30773.417969 28346.705078
88257.515625 30997.744141 28336.785156
88047.648438 30969.906250 28636.484375
66681.484375 66032.265625 47462.679688
66678.765625 66400.218750 47464.492188
66995.156250 66162.726562 47462.824219
88463.929688 30921.947266 14899.177734
88509.242188 30707.730469 15583.577148
88615.210938 30829.707031 15375.586914
88350.710938 30707.015625 15357.991211
88646.671875 31017.498047 27758.648438
88607.117188 30830.062500 27472.242188
88390.976562 30808.404297 27749.960937
88507.460938 31056.175781 14586.164062
88742.179688 31089.095703 14828.109375
88926.703125 30973.820312 15377.543945
88967.515625 31112.931641 15053.990234
88695.242188 30959.384766 15116.982422
88544.187500 30615.554688 15895.034180
88889.390625 30740.769531 15987.049805
88756.960938 30797.978516 15655.329102
88828.101562 30856.876953 27200.550781
89089.796875 31080.566406 27207.630859
88868.195312 31055.671875 27494.376953
89531.742188 31181.470703 15556.541016
89238.585938 31074.449219 15489.898438
89371.546875 31024.384766 15789.708984
89366.679688 30817.947266 16341.603516
89237.992188 30677.957031 16563.314453
89472.601562 31092.904297 26667.146484
89447.320312 30918.880859 26422.853516
89248.500000 30898.935547 26668.064453
89675.335938 30925.996094 16394.742188
89549.929688 30719.177734 25966.787109
89807.484375 30895.070312 25897.273438
89865.812500 31102.542969 26138.472656
89630.437500 30918.859375 26174.943359
89670.531250 31107.843750 26413.042969
89826.796875 31084.427734 16152.081055
89994.601562 31042.542969 16437.687500
90168.562500 30756.634766 17276.185547
90288.437500 31017.251953 25378.074219
90212.046875 30827.814453 25155.423828
90003.460938 30846.878906 25531.109375
70779.695312 65582.531250 47464.800781
70622.968750 65398.582031 47462.894531
70805.265625 65833.390625 47467.042969
90447.609375 30834.822266 17379.671875
90551.140625 30671.000000 24064.193359
90406.820312 30684.103516 24432.361328
90693.593750 30944.636719 24441.291016
90393.625000 30820.365234 24790.187500
90640.046875 31066.818359 24820.955078
71071.328125 65914.382812 47468.898438
71013.757812 65640.945312 47466.121094
90465.710938 31046.193359 25114.265625
90824.484375 30962.599609 17490.425781
90904.007812 30827.314453 17899.021484
90761.914062 30713.353516 23693.380859
90891.390625 30935.996094 23999.626953
91064.945312 30933.462891 23617.070312
91276.429688 31018.496094 17891.044922
91131.054688 30833.013672 18166.277344
91190.375000 30742.203125 18473.324219
91518.171875 30835.214844 18682.244141
91426.398438 30940.224609 18281.255859
73415.312500 41152.484375 47460.167969
73757.515625 41192.476562 47459.218750
73720.562500 40847.164062 47459.152344
91362.757812 30923.937500 22923.066406
91221.671875 30744.658203 22692.390625
91081.570312 30736.953125 23005.513672
91220.921875 30929.697266 23260.125000
90923.125000 30722.808594 23340.201172
91668.960938 30801.447266 18995.472656
91603.843750 30678.720703 19263.183594
91338.890625 30749.298828 22429.597656
91585.625000 30864.265625 22246.751953
91294.476562 30643.199219 22163.246094
91485.429688 30908.484375 22601.578125
69748.632812 65699.539062 38485.476562
91826.695312 30722.960938 19511.388672
91894.101562 30848.562500 19197.902344
91758.281250 30617.402344 19825.578125
92124.242188 30885.857422 19455.685547
92041.039062 30773.753906 19758.160156
92026.546875 30820.375000 21187.000000
91972.132812 30718.134766 20829.333984
91736.968750 30704.017578 21393.025391
91940.468750 30869.554688 21547.867188
91836.859375 30921.769531 21909.457031
91708.281250 30763.912109 21669.947266
91527.742188 30720.697266 21903.642578
92204.007812 31018.798828 19132.691406
92325.984375 30921.626953 19725.947266
92208.468750 30822.613281 19968.238281
69850.031250 65486.144531 38265.847656
68104.148438 65703.718750 47459.320312
67813.500000 65601.875000 47459.031250
92219.828125 30810.328125 20255.484375
92451.984375 30942.816406 20035.896484
92219.125000 30823.013672 20604.964844
92448.492188 30975.337891 20782.832031
92518.515625 30973.492188 20415.662109
92371.929688 31017.070312 21145.847656
92212.632812 30862.386719 20908.376953
92179.750000 30977.814453 21419.136719
72672.164062 60559.976562 47447.890625
72877.960938 60298.949219 47447.980469
72553.609375 60252.054688 47447.480469
86026.218750 31103.611328 10640.916992
86524.734375 31300.636719 10907.217773
86711.835938 31471.589844 10932.523438
86759.882812 31242.156250 11155.240234
86936.562500 31474.857422 11117.188477
87050.265625 31248.982422 11429.694336
87513.187500 31413.181641 11796.000977
87443.187500 31207.554688 12016.364258
87676.835938 31420.121094 12056.388672
87276.859375 31202.554687 11756.791992
87221.156250 30991.423828 11993.174805
87327.039062 31131.593750 30155.812500
87462.226562 31081.935547 29826.341797
87392.804688 31296.800781 30418.541016
87590.507812 31217.974609 12267.785156
87820.648438 31408.312500 12334.590820
67242.781250 65149.031250 47458.113281
67485.695312 65458.957031 47458.925781
67544.828125 65081.570312 47457.304688
87816.078125 31162.570312 12850.002930
87959.328125 31324.521484 29528.943359
87899.562500 31126.300781 29219.322266
87692.914062 31106.835938 29515.642578
66435.953125 66217.656250 47464.027344
66413.976562 65897.601562 47462.550781
66227.859375 66084.320312 47463.980469
87945.031250 31377.769531 12625.981445
88068.945312 31356.796875 12913.272461
87966.070312 31197.490234 13094.272461
87791.562500 31039.033203 13132.076172
