1230
71021.343750 66108.835938 66313.257812
70443.734375 66138.093750 66212.289062
71220.750000 65935.687500 66332.335938
89480.953125 65846.085938 64506.218750
89264.914062 65730.140625 64714.472656
89314.726562 65944.984375 64804.589844
85401.742188 49569.644531 55563.976562
90909.851562 66128.765625 63090.417969
90890.562500 65863.031250 62989.167969
90707.726562 65946.726562 63169.871094
90896.039062 65259.824219 62768.984375
90836.242188 65544.078125 62904.351563
91116.835938 66325.335938 63024.171875
91111.039062 66055.273438 62914.328125
91825.710938 65805.054688 62488.324219
92028.070312 66220.734375 62508.648438
92037.804688 65964.976562 62445.996094
91802.468750 66062.968750 62558.976563
92476.187500 65576.867188 62279.144531
92773.148438 65718.921875 62246.390625
93036.460938 65815.484375 62224.339844
92964.710938 65552.671875 62216.238281
66616.078125 66121.234375 59601.445313
66701.054688 66002.609375 61188.265625
66619.242188 66289.328125 61742.585937
66807.867188 66238.562500 62076.308594
67007.226562 66194.031250 62337.085938
67013.546875 65993.320312 62083.117188
67216.539062 66176.804688 62602.226563
67010.304688 66420.546875 62570.464844
67405.781250 66598.828125 63211.359375
67521.320312 66363.968750 63180.890625
67358.476562 66443.578125 63023.386719
67703.859375 66579.031250 63639.390625
67565.398438 66524.125000 63378.179688
68070.906250 66245.648438 63994.726562
68287.593750 66520.562500 64562.085938
68241.281250 66267.070312 64311.027344
68122.726562 66599.187500 64350.937500
68458.085938 65818.593750 64366.226562
68337.601562 65981.914062 64272.167969
92298.835938 49278.367188 60412.730469
68562.679688 66324.632812 64852.656250
92178.914062 48501.121094 60001.746094
91926.187500 48649.351562 59842.597656
92155.117188 48781.125000 60093.488281
69215.304688 66247.367188 65545.875000
69788.500000 66149.414062 65940.195312
69821.882812 66390.007812 66006.484375
69871.343750 66627.609375 66067.250000
70050.976562 66474.304688 66119.710938
70240.882812 66310.273438 66168.296875
70554.867188 66445.945312 66251.523438
70898.539062 66632.539062 66310.242188
71147.078125 66463.773438 66335.164062
71330.804688 66258.359375 66349.328125
90064.335938 66642.570312 64157.273438
89876.789062 66602.382812 64392.003906
89980.890625 66847.914062 64368.750000
90868.453125 66623.250000 63357.367187
90902.640625 66380.718750 63214.351562
90691.859375 66403.617188 63405.367188
91333.093750 66244.890625 62848.851562
91336.914062 66512.773438 62953.636719
91352.929688 66772.109375 63052.378906
91562.625000 66684.828125 62880.882812
91561.265625 66157.562500 62695.054688
91788.046875 66594.039062 62723.988281
92012.578125 66765.625000 62670.238281
92024.382812 66492.875000 62583.507812
92216.757812 66105.609375 62415.199219
92432.875000 66126.164062 62357.683594
92285.382812 66371.812500 62452.792969
92655.250000 66156.625000 62310.597656
92831.148438 66343.265625 62304.691406
92868.859375 66037.257812 62261.460938
93333.140625 66160.656250 62219.839844
93289.578125 65899.031250 62209.175781
93124.351562 66039.687500 62229.968750
68290.554688 49118.183594 38047.710938
66854.148438 66891.625000 62745.378906
66830.226562 66653.257812 62543.027344
66652.695312 66882.046875 62486.496094
67272.929688 66851.921875 63229.218750
67344.679688 67087.117188 63491.742187
67480.304688 66761.429688 63443.250000
67573.632812 66914.648438 63697.062500
67646.554688 67084.671875 63935.355469
67481.773438 67167.031250 63743.152344
67833.937500 66978.328125 64155.843750
67954.101562 66699.843750 64145.226562
67772.945312 66793.578125 63918.164062
55313.492188 97040.476562 40129.246094
68181.859375 66782.046875 64570.992188
68012.851562 66871.085938 64366.320312
68075.882812 67040.695312 64584.414062
68248.101562 66959.781250 64784.515625
68429.546875 66875.632812 64980.238281
68544.609375 66591.515625 64972.636719
68350.468750 66703.156250 64771.898438
68617.914062 66806.500000 65173.347656
68809.312500 66782.187500 65369.093750
68754.843750 66562.335938 65210.191406
72171.460938 69274.304688 26997.722656
72472.164062 69350.554688 26998.667969
69468.656250 66507.226562 65820.984375
69508.234375 66687.226562 65895.664062
69655.265625 66553.609375 65948.687500
69671.523438 66787.687500 66002.898438
69931.500000 66887.796875 66119.828125
70031.179688 67181.062500 66178.750000
70215.468750 67020.898438 66213.453125
70122.984375 66742.023438 66167.625000
70325.585938 66600.359375 66211.265625
71211.671875 67004.351562 66354.023438
89568.210938 66898.796875 64996.394531
89644.125000 66553.054688 64701.726563
89579.875000 66954.070312 65008.480469
89768.039062 66858.718750 64678.835938
90841.882812 66857.835938 63489.585938
90609.742188 66932.671875 63733.738281
90831.648438 67096.820312 63609.332031
91203.640625 67077.304688 63298.476562
91022.414062 67113.773438 63457.984375
92241.367188 66670.945312 62542.808594
92493.781250 67086.750000 62559.699219
92415.000000 66833.757812 62518.257812
92233.945312 66934.984375 62622.175781
92742.929688 66608.953125 62367.871094
92570.273438 66371.015625 62366.542969
93156.531250 66920.851562 62324.507812
93458.468750 67061.156250 62287.460938
93380.078125 66743.953125 62263.855469
66464.382812 67135.718750 62418.621094
66673.601562 67151.437500 62693.839844
66893.031250 67147.187500 62957.683594
67111.179688 67129.343750 63214.453125
67334.820312 67377.054688 63675.078125
67149.351562 67386.843750 63427.054688
68675.257812 66972.382812 65318.449219
68636.531250 67203.484375 65385.468750
68513.062500 67050.453125 65175.960938
68419.468750 67301.242188 65198.253906
68817.375000 67010.718750 65479.121094
68991.867188 66822.664062 65560.218750
68994.953125 67066.343750 65657.523438
69181.226562 66881.750000 65734.398438
71417.710938 69142.710938 26994.691406
71744.062500 69006.828125 26996.140625
69529.500000 67239.648438 66009.976562
69655.312500 67578.132812 66108.203125
69873.507812 67374.593750 66150.812500
70293.882812 67260.882812 66252.179688
70477.742188 67189.687500 66279.484375
70444.890625 67444.500000 66295.921875
90783.304688 67563.851562 63904.839844
90520.578125 67390.742188 64051.867188
91488.031250 67585.867188 63330.812500
91530.085938 67404.617188 63212.589844
91759.148438 67373.218750 63043.125000
91778.828125 67116.695312 62922.324219
91562.289062 67182.171875 63088.113281
91784.859375 66857.296875 62818.269531
92007.000000 67032.929688 62763.324219
92238.289062 67211.343750 62710.570312
92467.984375 67383.953125 62658.402344
92631.070312 66848.546875 62448.511719
86988.507812 45151.378906 51123.742188
66985.773438 67666.570312 63379.792969
67176.921875 67635.742188 63619.246094
67349.921875 67611.257812 63856.363281
67212.406250 67827.750000 63792.183594
67350.109375 67880.234375 64042.148438
67523.609375 67583.976562 64108.671875
67694.132812 67552.070312 64359.582031
67895.632812 67700.875000 64772.316406
68052.968750 67638.164062 64945.566406
68018.460938 67462.617188 64787.578125
68184.281250 67735.976562 65158.957031
68395.414062 67703.140625 65375.722656
68341.953125 67524.531250 65228.261719
68727.507812 67416.640625 65565.632812
68603.828125 67659.960938 65557.015625
68850.273438 67643.812500 65738.976562
69151.226562 67701.242188 65924.656250
79869.859375 68173.570312 26998.923828
69449.593750 67738.132812 66065.046875
70046.992188 67763.679688 66242.414062
70177.554688 67477.632812 66244.054688
90313.179688 67436.359375 64283.855469
86464.835938 45314.105469 50464.179688
86682.093750 45202.527344 50356.621094
90496.984375 67665.421875 64238.691406
93587.367188 41130.753906 60745.804688
91195.171875 67821.554688 63689.085938
91335.054688 67678.359375 63494.125000
91093.070312 67582.539062 63638.207031
91409.539062 67905.656250 63563.105469
78449.078125 69186.078125 27000.523438
63703.085938 81116.625000 26979.593750
91937.914062 67792.601562 63111.941406
91722.062500 67642.328125 63191.855469
91811.531250 67950.554688 63279.671875
92145.015625 67785.601562 62973.855469
92304.203125 68022.507812 62969.996094
92383.742188 67793.609375 62835.882812
92706.187500 67312.320312 62537.710938
92773.234375 67073.359375 62454.417969
92616.812500 67792.617188 62714.535156
92786.382812 68006.156250 62697.664062
92855.179688 67755.710938 62596.074219
93176.835938 67184.007812 62361.792969
92944.398438 67262.500000 62441.722656
93139.609375 67434.929688 62418.320312
59639.750000 87366.679688 55458.253906
59942.921875 87270.078125 55464.609375
93095.562500 67688.054688 62486.054687
93276.156250 67840.976562 62455.410156
93339.664062 67618.335938 62394.597656
66582.015625 68249.851562 63163.375000
66705.039062 68009.242188 63201.792969
67026.101562 67937.242188 63587.000000
67262.195312 68160.710938 64087.656250
67284.070312 68364.773438 64257.785156
67409.187500 68094.468750 64288.699219
67721.585938 67762.437500 64555.917969
67585.281250 68036.062500 64532.398438
67773.726562 67966.296875 64767.753906
67855.437500 68167.984375 64992.066406
67968.531250 67873.570312 64974.382813
68269.617188 67957.304688 65365.980469
68476.273438 67902.937500 65545.984375
68706.242188 67880.421875 65717.875000
69141.054688 68249.382812 66028.109375
69277.992188 68611.312500 66138.187500
69427.875000 68376.000000 66160.703125
69719.523438 67935.296875 66182.562500
69986.398438 68061.546875 66271.257812
90362.898438 67806.906250 64461.375000
90461.796875 67926.156250 64440.804688
60655.300781 86622.351562 55408.910156
59806.953125 86816.914062 55444.726562
59893.640625 86536.375000 55441.062500
92236.000000 68253.890625 63114.820312
92066.851562 68005.625000 63120.964844
92541.945312 68021.726562 62828.812500
92701.226562 68240.632812 62813.996094
92846.953125 68462.328125 62805.570312
92941.031250 68231.632812 62686.664062
93504.726562 67830.859375 62384.363281
93338.859375 68402.765625 62551.410156
93374.109375 68095.726562 62474.070312
93161.679688 68233.632812 62585.390625
94675.750000 71603.117188 62616.351562
94939.484375 71653.656250 62514.710938
94822.476562 71390.023438 62518.878906
67041.039062 68695.820312 64025.761719
67115.335938 68400.898438 63990.359375
66913.929688 68621.742188 63777.972656
67449.007812 68320.132812 64502.437500
67641.523438 68264.968750 64757.707031
67730.539062 68526.945312 65014.511719
67931.101562 68625.648438 65305.257812
67977.117188 68330.773438 65222.148438
68138.554688 68421.312500 65440.875000
68352.039062 68188.093750 65548.695312
68333.640625 68497.843750 65647.093750
68803.085938 68138.390625 65849.125000
68570.523438 68073.398438 65688.984375
68895.984375 68423.218750 65955.078125
68937.406250 68745.242188 66031.593750
69528.851562 68574.882812 66221.007812
69664.195312 68266.523438 66217.773438
91068.945312 68480.226562 64230.675781
90815.445312 68494.382812 64481.179688
91470.640625 68133.804688 63649.652344
91497.437500 68352.109375 63760.097656
91668.921875 68263.398438 63561.523438
91255.976562 68757.906250 64237.886719
91466.203125 68810.703125 64077.000000
91356.210938 68541.734375 64004.984375
91992.937500 68212.296875 63275.425781
92306.671875 68730.453125 63288.410156
92159.554688 68471.656250 63277.007813
92080.242188 68676.289062 63449.812500
92528.382812 68828.023438 63157.519531
92436.609375 68529.554688 63094.265625
92729.335938 68698.234375 62961.042969
92633.867188 68441.593750 62924.035156
93091.640625 68451.203125 62673.707031
93602.281250 68332.242188 62441.613281
66617.578125 69014.750000 63512.218750
66760.648438 69203.453125 63784.285156
66790.171875 68896.921875 63708.832031
66925.734375 68927.648438 63938.761719
67172.375000 69107.851562 64457.554688
67337.414062 68845.960938 64617.832031
67209.476562 68817.914062 64392.078125
67078.031250 68904.187500 64196.660156
67355.625000 69124.695312 64769.308594
67546.937500 69137.617188 65049.937500
67524.757812 68847.453125 64895.621094
67729.539062 68864.687500 65171.574219
67921.781250 68900.304688 65411.671875
67955.187500 69150.203125 65528.621094
68085.664062 68931.523438 65588.085938
68192.218750 69125.265625 65721.523438
68333.093750 68815.375000 65739.500000
68112.156250 68696.585938 65526.960937
68421.257812 69102.710938 65861.015625
68711.437500 69300.062500 66017.812500
68663.921875 68913.140625 65941.093750
78157.968750 68951.851562 27001.341797
69026.851562 69069.820312 66105.281250
71219.546875 80291.695312 26978.796875
92116.687500 69127.765625 63674.187500
91987.328125 68892.476562 63654.121094
92214.250000 68920.781250 63467.839844
92735.835938 68988.609375 63070.113281
93113.710938 69135.257812 62867.984375
93338.312500 69144.148438 62739.421875
93188.484375 68919.015625 62757.718750
93481.390625 68927.187500 62611.730469
66916.093750 69604.375000 64177.000000
67023.937500 69784.445312 64427.554688
67077.148438 69454.125000 64420.636719
67371.851562 69444.992188 64913.914062
67182.398438 69630.070312 64666.566406
67290.125000 69793.328125 64901.792969
96504.351562 89332.632812 64516.671875
96481.445312 89448.625000 64570.679688
68045.710938 69440.625000 65668.023438
68368.289062 69389.640625 65875.218750
68587.125000 69624.468750 66019.546875
68908.796875 69670.968750 66143.101562
69234.476562 68891.937500 66158.859375
69382.007812 69175.828125 66228.468750
69186.257812 69717.531250 66228.226562
69540.570312 69430.718750 66290.812500
69617.390625 69254.742188 66298.507812
92279.976562 69375.250000 63665.511719
92015.203125 69356.085938 63904.019531
92165.195312 69611.679688 63914.808594
92765.914062 69523.546875 63290.816406
92904.250000 69790.765625 63294.460938
92984.804688 69592.195312 63131.046875
93147.835938 69521.000000 62979.117188
93248.695312 69337.398438 62850.398437
93070.414062 69308.734375 62955.046875
93466.671875 69356.156250 62728.152344
93372.992188 69550.960938 62841.394531
66754.265625 69741.179688 63941.152344
66861.390625 69943.562500 64178.839844
67100.312500 70259.250000 64698.347656
67133.398438 69949.718750 64674.523438
66981.164062 70125.523438 64442.808594
67461.601562 69678.523438 65129.488281
67387.992188 69959.203125 65110.976562
67237.835938 70101.609375 64905.738281
61602.996094 86083.109375 55393.339844
61852.621094 85985.375000 55390.187500
61639.488281 85826.820312 55392.207031
68027.601562 69789.421875 65718.085938
68260.429688 69986.750000 65900.882812
68293.476562 69690.468750 65877.109375
68491.179688 69865.421875 66015.617188
68729.945312 69883.414062 66112.562500
69031.820312 69893.234375 66206.351562
69109.773438 69854.093750 66222.664062
91976.562500 69551.593750 64059.613281
92118.250000 69804.203125 64077.082031
92311.789062 69882.179688 63931.546875
92480.742188 69632.476562 63619.476562
92252.515625 70054.937500 64094.957031
92433.515625 70140.015625 63959.492187
92682.500000 70184.078125 63725.105469
92629.031250 69920.515625 63633.265625
73116.914062 68125.992188 27000.820313
73247.781250 68500.320312 27000.943359
93292.601562 69717.062500 62946.007812
93134.140625 69758.804688 63078.550781
66577.554688 70389.015625 63818.480469
66683.734375 70063.515625 63912.109375
66796.031250 70352.476562 64168.207031
67343.476562 70247.390625 65124.113281
67515.695312 70090.703125 65317.828125
67703.289062 70211.742188 65537.281250
67706.804688 70482.210938 65587.617188
67915.226562 70317.406250 65726.414062
72963.078125 67749.812500 27000.595703
68223.304688 70322.515625 65913.781250
68322.687500 70678.320312 65996.734375
93180.109375 70392.507812 63314.906250
93379.609375 70403.382812 63127.531250
93262.093750 70186.242188 63141.519531
66449.968750 70701.210938 63676.441406
66357.664062 70387.554688 63505.917969
66643.078125 70714.234375 63981.445312
66969.156250 70462.109375 64505.398438
66929.796875 70985.710938 64555.011719
67006.414062 70739.984375 64644.937500
67484.898438 70718.664062 65408.945312
67484.507812 70383.734375 65349.683594
67978.101562 70560.968750 65793.179688
68637.046875 70824.976562 66150.554688
92585.640625 70405.242188 63953.394531
92809.726562 70589.320312 63815.453125
92904.093750 70352.234375 63583.839844
93675.343750 71035.554688 63108.613281
93632.992188 70825.960938 63071.894531
93464.250000 70888.796875 63256.609375
93059.156250 70613.640625 63555.535156
93310.664062 70630.859375 63295.488281
93197.609375 70870.023438 63536.492188
66758.929688 71371.140625 64298.382812
67389.578125 71096.546875 65360.191406
67660.242188 71014.304688 65614.078125
67590.117188 71404.171875 65592.015625
68037.203125 70889.710938 65857.101562
67744.414062 70708.851562 65652.343750
60273.964844 87012.250000 55436.808594
68413.046875 70956.179688 66061.609375
68164.296875 71183.351562 65966.289062
68372.187500 71285.375000 66077.039062
68698.523438 71012.890625 66187.476562
52149.792969 94362.164062 42706.605469
52341.855469 94439.734375 42607.273438
92917.328125 70829.101562 63829.914062
93552.304688 71386.062500 63399.085938
93723.625000 71294.335938 63168.125000
93563.867188 71150.210938 63264.644531
63347.621094 81237.328125 26978.998047
93077.273438 71060.273438 63777.363281
92988.679688 71222.656250 63977.476562
93203.671875 71289.265625 63763.242188
66609.515625 71477.187500 64029.136719
66708.382812 71680.414062 64247.054688
66824.929688 71572.273438 64466.738281
66911.796875 71291.937500 64587.566406
67117.765625 71565.648438 65044.527344
67036.414062 71344.984375 64853.210938
66943.257812 71655.835938 64728.968750
67308.632812 71437.085938 65304.621094
67890.335938 71219.664062 65804.023438
67853.109375 71551.820312 65812.335938
68098.242188 71471.851562 65958.242188
68250.031250 71693.742188 66061.750000
93182.218750 71789.304688 64106.628906
93185.023438 71502.226562 63919.500000
66578.039062 71801.578125 64003.226562
66673.320312 71995.250000 64218.660156
66800.617188 71861.367188 64469.265625
66897.257812 72054.617188 64708.464844
67060.234375 71908.703125 64993.207031
67454.304688 71672.382812 65489.335938
67501.023438 72022.031250 65529.617188
67707.882812 71791.570312 65709.125000
76254.898438 97043.859375 61131.722656
67815.328125 72098.273438 65797.281250
68035.609375 71855.515625 65946.234375
68222.476562 72041.132812 66074.992188
73098.781250 72430.062500 26998.035156
66476.343750 72288.046875 63823.925781
66561.929688 72075.617188 63994.269531
66625.843750 72350.250000 64151.488281
66764.164062 72205.117188 64445.074219
66865.617188 72416.500000 64689.527344
67014.687500 72258.828125 64955.285156
67006.343750 72597.804688 64953.906250
67212.015625 72137.382812 65225.003906
81764.375000 68367.023438 26981.783203
81825.109375 67966.320312 26982.216797
67769.390625 72470.468750 65776.992188
67937.234375 72635.601562 65928.453125
68067.156250 72236.867188 65986.148438
66740.968750 72547.851562 64430.085937
66849.960938 72806.226562 64671.808594
67015.492188 72889.828125 64971.757813
67164.593750 73147.398438 65161.746094
75326.609375 70036.156250 27002.019531
67419.140625 73055.226562 65463.550781
73600.687500 70705.242188 26999.968750
66447.695312 73231.328125 63599.191406
66530.820312 73103.859375 63870.445312
66645.070312 73334.125000 64134.367188
66634.726562 72962.875000 64171.382812
66763.171875 73161.351562 64466.339844
66872.171875 73466.312500 64677.445312
66929.304688 73156.171875 64811.667969
67026.093750 73407.929688 64951.285156
67558.007812 73432.578125 65589.328125
66526.578125 73844.507812 63499.660156
66548.968750 73521.039062 63780.253906
66629.406250 73945.867188 63830.417969
66671.859375 73708.921875 64104.238281
66759.468750 73842.695312 64332.703125
66751.328125 73551.859375 64384.683594
66854.476562 73787.398438 64581.906250
67019.656250 73699.742188 64894.136719
67245.945312 73941.664062 65163.558594
67264.570312 73534.843750 65249.113281
67535.500000 73844.867188 65525.347656
66467.664062 74060.023438 62939.980469
66536.539062 74117.984375 63256.210938
73653.312500 58726.144531 27019.607422
66619.148438 74209.703125 63564.808594
66715.351562 74329.312500 63884.582031
66841.921875 74101.968750 64449.945312
66732.710938 74064.132812 64141.675781
67002.398438 74047.414062 64788.968750
67232.046875 74346.054688 65064.671875
67476.109375 74204.445312 65406.941406
67681.382812 74199.429688 65641.835938
67724.976562 73749.656250 65740.570312
66578.054688 74386.750000 63042.718750
66699.828125 74726.203125 63200.101562
66625.421875 74410.695312 63330.347656
66719.468750 74599.882812 63591.429688
66801.875000 74693.468750 63933.781250
66835.609375 74462.218750 64248.542969
66902.601562 74877.125000 64205.464844
66985.218750 74760.390625 64517.945312
67135.703125 74991.039062 64731.675781
67168.507812 74712.156250 64877.066406
66983.656250 74406.578125 64645.398438
67609.929688 74492.476562 65515.769531
67444.281250 74690.898438 65271.253906
67668.281250 74780.421875 65527.273438
67737.765625 74639.953125 65633.242188
66726.000000 74965.320312 62715.746094
66638.843750 74672.054688 62801.132812
66659.867188 74843.304688 62483.000000
66737.992188 74933.859375 62951.519531
66822.500000 75126.921875 63192.785156
66875.781250 75217.453125 63487.589844
66797.687500 74945.164062 63488.503906
66809.765625 74875.453125 63735.242188
66875.125000 75011.078125 63941.351562
67037.460938 75109.460938 64458.386719
67233.085938 75330.429688 64746.308594
67375.039062 75059.179688 65076.445313
67597.359375 74984.914062 65394.433594
67739.828125 75048.210938 65545.984375
66667.179688 75629.343750 61395.628906
66651.125000 75139.328125 61889.882812
66792.328125 75400.515625 62114.363281
66672.476562 75014.570312 62183.437500
66781.140625 75199.343750 62498.320313
66897.570312 75465.960938 62731.117188
66810.281250 75180.164062 62850.210938
66896.664062 75396.117188 63022.242188
66948.687500 75493.828125 63343.968750
66946.062500 75399.250000 63687.847656
66870.546875 75120.570312 63710.250000
66933.234375 75265.664062 63902.269531
67032.617188 75561.273438 64003.843750
66971.507812 75222.054688 64154.109375
67116.164062 75491.343750 64400.820312
67444.492188 75396.179688 65058.027344
67635.328125 75669.648438 65211.003906
67771.164062 75493.617188 65454.070313
67616.867188 75285.117188 65331.125000
66817.937500 75802.257812 61636.546875
66958.546875 75998.437500 61885.660156
66852.164062 75687.453125 61907.589844
66957.781250 75809.523438 62220.679688
66888.437500 75530.023438 62429.914062
67086.500000 76184.546875 62150.164063
67095.664062 76087.320312 62476.058594
66994.453125 75774.523438 62608.429687
67004.156250 75721.507812 62996.632812
67067.281250 75872.250000 63348.621094
67173.968750 76201.601562 63342.597656
67135.234375 76066.703125 63629.945312
67037.257812 75725.875000 63660.417969
67124.476562 75946.406250 63931.140625
67238.929688 76205.484375 64146.132812
67162.585938 75846.109375 64256.917969
67387.648438 75704.664062 64830.695312
67228.976562 75752.609375 64522.175781
67708.820312 76057.523438 65151.281250
67830.171875 75909.406250 65378.574219
66920.125000 76470.343750 61304.738281
66759.070312 76145.585938 61208.054688
66734.742188 76439.070312 60981.640625
67066.734375 76523.000000 61593.539062
66917.851562 76169.640625 61553.718750
67076.921875 76332.835938 61853.843750
56417.753906 84303.335938 42838.082031
67206.273438 76334.695312 62697.074219
67201.929688 76290.375000 63031.757812
67104.914062 76036.312500 62818.390625
67237.109375 76389.679688 63620.484375
67330.789062 76677.187500 63629.832031
67314.125000 76556.773438 63939.496094
67201.109375 76240.148438 63858.488281
67393.187500 76507.460938 64350.500000
67331.101562 76074.476562 64526.687500
67701.078125 76424.890625 64969.976563
66518.554688 76399.507812 60664.207031
67057.039062 76721.382812 61392.332031
67314.804688 77118.070312 61646.949219
67283.570312 76869.718750 61832.789062
67184.203125 76807.257812 61610.148438
67191.617188 76628.984375 61842.621094
67415.812500 76907.593750 62763.992188
67306.492188 76626.335938 62568.464844
67398.343750 76924.640625 62365.320312
67284.914062 76633.421875 62295.160156
67200.468750 76389.757812 62379.105469
67294.937500 76563.812500 63305.710938
67308.500000 76597.945312 62915.800781
67429.492188 76948.664062 63814.929688
67436.968750 76847.820312 64123.531250
67620.585938 76941.476562 64503.359375
68030.296875 76923.945312 65214.792969
67954.656250 76654.257812 65227.582031
67796.859375 76804.078125 64925.777344
67962.328125 80586.070312 26982.052734
67246.046875 77255.976562 61359.414062
67141.593750 76989.273438 61361.054687
67072.601562 77228.476562 61079.007812
67391.812500 77052.398438 62003.996094
67297.500000 76761.578125 62071.406250
67519.953125 77201.656250 62987.250000
67581.398438 77417.484375 63542.335938
67553.648438 77301.640625 63833.011719
67487.054688 77149.109375 63591.468750
67557.734375 77167.312500 64119.843750
67735.023438 77325.468750 64484.113281
73073.578125 80874.703125 26960.580078
67863.851562 77139.148438 64857.777344
62626.574219 85725.203125 55382.722656
68071.296875 77266.218750 65124.195312
68190.093750 76938.937500 65428.457031
66793.101562 77622.195312 60499.878906
66698.578125 77290.859375 60517.355469
66511.007812 77169.648438 60317.722656
66926.921875 77426.585938 60763.058594
67358.125000 77730.242188 61219.261719
67410.140625 77500.289062 61507.167969
67254.132812 77458.445312 61225.207031
67488.375000 77380.164062 61880.160156
61269.957031 85528.132812 55396.632812
67597.570312 77715.187500 61783.707031
67720.437500 77893.781250 62003.015625
67635.976562 77632.406250 62118.359375
67775.132812 77951.109375 62326.519531
67523.328125 77296.421875 62243.820312
67650.718750 77587.484375 62485.242188
67529.375000 77237.515625 62618.753906
67637.187500 77536.734375 62862.136719
67611.617188 77487.437500 63219.847656
67673.554688 77622.117188 63823.902344
67821.101562 77823.109375 64160.511719
67873.789062 77671.046875 64506.847656
67690.453125 77502.398438 64156.683594
62852.531250 85250.984375 55382.507812
67951.328125 77515.289062 64801.062500
68067.898438 77857.960938 64791.804687
68109.687500 77694.882812 64985.964844
66902.851562 78231.078125 60360.128906
66701.265625 77870.046875 60274.585938
66638.273438 78158.578125 60060.191406
67472.515625 78016.093750 61214.992188
67269.523438 77960.453125 60945.511719
67477.835938 78276.757812 61057.539062
67152.710938 77592.007812 60987.554688
67019.210938 77764.804688 60721.453125
67547.343750 77872.523438 61474.714844
67711.859375 78040.203125 61748.449219
67820.992188 78152.843750 62054.746094
67761.445312 77893.593750 62733.835938
67811.250000 78093.968750 63324.101563
67728.843750 77825.703125 63108.292969
67707.960938 77779.992188 63489.515625
67810.125000 78075.046875 63591.062500
67793.664062 77941.343750 63830.523438
68028.468750 78708.226562 63158.398438
66761.140625 78858.453125 59862.437500
66802.507812 78522.656250 60096.312500
66896.070312 77913.593750 60500.597656
67090.968750 78093.250000 60651.039062
67179.296875 78431.460938 60588.742188
67668.242188 78589.312500 61166.265625
67664.617188 78256.093750 61416.164062
67847.648438 78650.148438 61508.992187
67840.523438 78379.187500 61792.933594
67985.382812 78742.218750 61875.011719
67939.593750 78466.453125 62185.464844
68022.867188 78653.812500 62472.871094
67903.492188 78307.023438 62597.050781
67973.531250 78555.484375 63430.199219
68000.835938 78524.992188 63744.664062
67892.421875 78316.929688 63519.875000
68155.742188 78537.007812 64280.484375
67893.781250 78228.242188 63802.878906
68271.414062 78408.671875 64721.574219
68185.445312 78148.460938 64787.343750
68117.718750 78244.617188 64515.117188
67951.984375 78151.156250 64151.183594
68210.023438 78016.570312 64962.527344
66954.085938 78818.125000 60140.171875
67157.843750 78953.414062 60309.027344
67046.187500 78626.093750 60342.156250
67533.468750 78958.484375 60739.906250
67294.570312 78779.546875 60548.738281
67387.296875 79110.960938 60487.511719
67657.945312 78837.421875 60979.625000
67449.765625 78589.234375 60836.210938
67744.992188 79118.710938 60943.308594
67846.976562 78955.164062 61237.410156
68010.781250 79011.343750 61598.894531
68144.984375 79126.546875 61959.367188
68075.929688 78847.312500 62223.109375
68143.734375 78981.671875 62563.390625
68031.156250 78682.070312 62783.371094
68145.546875 79000.312500 62930.757812
68167.007812 79062.523438 63280.421875
68078.539062 78809.343750 63516.777344
68148.718750 78814.062500 63902.816406
68371.617188 78879.343750 64511.789062
68389.968750 78618.304688 64808.894531
66689.750000 79353.992188 59452.339844
66558.164062 79379.398438 59188.515625
66878.289062 79291.125000 59782.222656
66658.796875 79067.000000 59588.453125
67125.554688 79417.164062 60033.019531
67018.257812 79103.992188 60068.312500
67627.539062 79328.773438 60666.585938
67441.273438 79381.570312 60412.527344
67852.835938 79414.773438 60931.703125
67905.007812 79245.617188 61126.062500
68019.695312 79491.968750 61163.589844
68027.585938 79269.148438 61367.117188
68164.000000 79344.429688 61663.066406
68267.234375 79431.390625 61910.000000
68189.968750 79131.929688 62280.917969
68284.773438 79322.929688 62480.808594
68250.882812 79242.109375 62754.347656
68409.554688 79574.125000 62747.316406
68284.710938 79329.585938 63049.011719
68320.468750 79392.265625 63430.937500
68222.000000 79117.218750 63659.742188
68385.156250 79413.992188 63852.488281
68318.289062 79110.296875 64097.972656
68479.242188 79385.937500 64270.921875
68544.132812 79229.789062 64634.750000
66774.296875 79981.632812 59140.886719
66708.242188 79678.140625 59247.859375
66888.257812 79628.656250 59592.011719
67106.796875 79858.656250 59762.160156
67233.984375 79707.468750 60008.199219
67042.234375 79583.273438 59840.031250
73688.695312 70973.703125 26999.814453
67814.226562 79663.281250 60735.292969
67975.968750 79662.382812 60971.042969
68181.796875 79581.046875 61426.781250
68321.484375 79644.695312 61727.574219
68148.804688 79793.671875 61170.714844
61406.488281 81317.640625 26976.775391
61488.652344 80907.906250 26976.781250
68506.304688 79911.578125 61865.203125
68398.500000 79647.195312 62036.898438
68287.515625 79381.726562 62171.332031
68421.828125 79616.031250 62361.472656
68573.484375 79870.523438 62539.250000
68595.968750 79921.148438 62879.269531
68639.328125 80018.695312 63178.937500
68469.109375 79702.132812 63192.691406
68619.273438 79969.796875 63511.566406
68653.726562 79939.750000 63942.390625
68487.460938 79692.710938 63653.175781
68558.531250 79675.476562 64104.015625
68631.617188 79583.687500 64507.824219
68737.281250 79760.085938 64631.015625
68654.359375 79442.859375 64733.445312
66590.671875 80155.265625 58421.035156
66853.242188 80434.867188 58882.335938
66891.906250 80244.226562 59158.144531
66735.007812 80136.445312 58903.113281
67080.132812 80364.085938 59409.789062
66942.281250 79993.335938 59433.437500
67193.843750 80190.750000 59685.625000
67426.195312 79793.265625 60187.925781
67344.226562 79539.210938 60222.648438
67597.171875 80007.484375 60284.410156
67798.414062 79959.804688 60557.324219
67581.710938 79667.203125 60435.984375
67976.898438 80250.640625 60634.757813
68027.445312 79960.937500 60865.085938
68281.351562 80130.742188 61129.425781
68380.593750 79944.234375 61482.527344
84438.140625 83563.460938 31620.806641
68695.109375 80145.000000 62053.289063
68559.132812 79884.265625 62203.066406
72667.140625 65798.375000 27001.062500
72389.890625 65791.328125 26999.927734
68782.718750 80249.101562 62982.121094
68768.445312 80242.265625 63402.320312
68769.257812 80187.789062 63826.699219
68785.609375 80101.687500 64210.734375
68719.656250 79885.109375 64377.089844
68984.359375 80372.742188 64514.074219
68843.671875 80083.156250 64509.562500
66885.554688 80927.312500 58276.097656
66826.851562 80626.070312 58542.929688
66989.085938 80754.648438 58891.015625
67012.156250 80549.664062 59147.503906
67293.148438 80523.937500 59635.886719
67621.859375 80368.406250 60141.917969
67781.687500 80751.304688 60167.210938
67896.078125 80506.695312 60412.265625
67534.617188 80690.937500 59879.246094
67400.062500 80363.007812 59866.738281
67779.015625 80217.835938 60403.687500
68173.203125 80278.835938 60872.789062
68382.617188 80473.578125 61034.160156
68654.609375 80754.789062 61223.859375
68815.054688 80591.226562 61644.406250
68536.281250 80346.554688 61367.738281
68636.656250 80214.937500 61718.472656
68815.531250 80391.242188 61931.847656
68990.585938 80669.867188 62020.187500
68868.960938 80387.679688 62244.609375
68719.875000 80119.765625 62385.507812
68861.656250 80353.828125 62610.257812
69192.289062 80968.968750 62862.531250
69083.468750 80800.304688 63178.062500
68986.437500 80594.085938 62897.316406
68925.460938 80517.406250 63272.203125
68917.328125 80472.804688 63725.753906
69137.171875 80668.046875 64561.414062
66615.414062 80876.390625 57411.160156
63390.796875 84512.523438 55383.910156
66804.460938 81105.601562 57680.566406
66804.796875 80907.359375 57970.863281
67004.539062 81001.437500 58625.089844
67162.093750 81095.328125 58988.273438
67273.656250 80990.312500 59316.664062
67187.593750 80682.726562 59376.601562
67117.382812 80815.101562 59146.367188
67387.218750 80852.945312 59590.000000
67489.125000 81221.828125 59544.824219
67702.882812 80967.882812 59977.078125
68041.429688 80865.515625 60428.035156
68185.023438 81272.812500 60426.171875
68315.710938 80969.218750 60688.816406
77841.750000 55419.375000 27010.259766
68427.289062 80760.898438 60917.441406
68175.984375 80585.843750 60710.535156
68574.421875 81032.210938 60945.246094
68790.187500 81093.367188 61173.652344
68973.132812 81023.789062 61517.402344
69117.195312 80975.750000 61893.839844
68991.242188 80803.945312 61765.324219
69156.789062 80918.929688 62194.292969
69263.125000 81093.187500 62457.949219
69057.234375 80703.304688 62473.261719
69277.546875 81207.773438 62109.855469
69187.906250 81009.500000 63441.007813
69031.171875 80717.500000 63477.308594
69112.273438 80819.671875 63868.957031
69297.523438 81137.421875 64142.863281
69168.609375 80827.132812 64279.808594
69235.914062 80897.078125 64496.585938
69242.492188 80857.632812 64658.843750
69328.742188 81095.601562 64525.812500
61234.234375 84901.343750 55404.515625
61014.054688 84737.500000 55411.800781
66809.984375 81548.859375 57248.679688
66709.515625 81215.617188 57310.835938
66979.789062 81681.585938 57535.960938
66865.289062 81395.914062 57509.269531
66973.570312 81446.546875 57794.546875
67078.046875 81504.460938 58133.320312
66934.468750 81188.398438 58035.234375
67034.679688 81249.984375 58363.734375
67155.023438 81530.531250 58431.000000
67155.234375 81351.179688 58683.175781
67297.960938 81747.726562 58682.457031
67335.664062 81269.007812 59239.082031
67307.859375 81477.304688 59001.503906
67478.578125 81551.437500 59326.203125
67737.359375 81282.835938 59885.917969
67902.601562 81101.304688 60171.281250
68188.671875 81611.773438 60308.496094
67985.835938 81456.117188 60136.593750
68402.898438 81598.984375 60529.011719
68480.742188 81301.375000 60720.355469
68663.562500 81613.351562 60778.660156
60580.589844 84677.664062 55428.585938
69127.132812 81390.671875 61481.835938
68955.656250 81351.023438 61239.417969
68736.078125 81333.335938 60975.179688
69213.460938 81294.398438 61764.339844
69569.406250 81720.851562 62598.253906
69392.210938 81352.585938 62728.003906
69425.382812 81454.109375 62353.117188
69328.984375 81259.765625 63121.746094
69513.085938 81616.718750 62967.839844
69614.765625 81855.554688 63306.214844
69458.015625 81536.515625 63314.058594
69512.132812 81653.367188 63703.281250
69499.679688 81574.148438 64210.414062
69348.031250 81319.125000 63599.472656
69449.289062 81404.648438 64460.703125
66864.335938 82118.515625 56995.085938
66934.523438 81886.328125 57255.390625
66726.289062 81762.976562 56965.750000
67102.742188 82015.093750 57548.546875
67134.250000 81821.164062 57891.316406
67295.062500 82119.578125 58138.148438
67219.828125 81802.101562 58291.425781
67360.648438 82096.648438 58472.910156
67460.656250 81836.109375 59071.484375
67674.601562 81589.859375 59650.097656
67867.820312 81945.609375 59768.496094
67642.875000 81896.953125 59418.519531
68067.593750 81832.867188 60086.367188
67861.929688 81623.796875 59913.296875
68589.171875 81908.125000 60596.093750
68850.484375 81925.218750 60845.531250
69129.960938 81662.976562 61306.335938
68911.375000 81635.257812 61033.468750
69092.804688 81951.601562 61104.589844
69335.445312 82020.312500 61413.402344
69299.820312 81648.335938 61623.324219
69525.429688 81978.203125 61831.875000
69574.976562 81822.195312 62232.378906
69398.992188 81562.476562 61984.519531
69722.343750 82037.875000 62873.429688
69883.093750 82367.234375 62967.085938
69786.960938 82217.890625 63300.585938
69697.250000 82051.960938 63782.886719
69665.320312 81955.804688 64228.488281
69616.554688 81803.421875 64492.398438
69679.710938 81961.429688 64489.421875
66775.671875 82376.492188 56763.839844
66991.867188 82467.882812 57030.484375
67060.617188 82224.460938 57281.691406
67198.218750 82304.992188 57539.843750
67322.281250 82521.046875 57716.421875
67247.179688 82201.007812 57812.003906
67383.804688 82446.648438 58043.824219
67496.453125 82414.546875 58590.394531
67413.398438 82360.242188 58316.699219
67466.796875 82130.015625 58816.433594
67617.187500 82471.656250 58914.640625
67801.500000 82243.046875 59494.656250
67618.273438 82189.992188 59163.156250
61675.988281 84335.234375 55409.699219
61789.453125 84632.632812 55403.371094
61972.613281 84348.500000 55405.765625
68328.460938 81894.242188 60346.652344
68235.882812 82206.203125 60124.378906
68514.304688 82210.914062 60413.226562
68783.226562 82224.593750 60668.304687
68709.320312 82526.335938 60488.964844
69044.140625 82241.375000 60923.578125
69279.281250 82566.585938 61048.113281
69246.039062 82236.406250 61157.191406
69446.054688 82398.078125 61338.167969
69547.500000 82264.507812 61594.324219
69729.515625 82179.273438 62150.789062
69846.710938 82266.281250 62668.781250
69951.812500 82561.476562 63272.890625
69797.976562 82285.992188 64125.339844
69878.476562 82480.054688 64277.960937
69738.156250 82113.421875 64440.242187
66557.234375 82942.046875 56397.652344
66779.039062 82904.406250 56611.226562
67091.882812 82822.968750 57035.921875
66888.429688 82705.867188 56791.371094
66955.460938 83029.226562 56781.046875
67286.906250 82990.656250 57297.406250
67202.695312 82590.234375 57354.933594
67463.914062 83184.210938 57562.433594
67385.070312 82842.515625 57613.093750
67462.398438 82766.453125 57939.281250
67596.023438 83045.281250 58101.648438
67541.664062 82721.492188 58336.019531
67707.554688 82970.171875 58629.777344
67620.851562 82688.656250 58689.562500
67783.625000 82846.812500 58984.953125
67777.585938 82530.062500 59249.785156
67979.015625 82860.937500 59402.109375
68102.937500 82699.562500 59717.011719
68252.578125 82570.804688 59984.785156
68025.859375 82329.617188 59803.132812
68304.632812 82888.117188 59898.156250
68525.109375 83036.632812 60094.820312
68628.421875 82805.468750 60304.054688
68428.070312 82766.726562 60105.703125
57437.531250 81374.562500 26966.544922
68893.656250 82854.500000 60551.574219
68987.828125 82554.289062 60750.703125
69791.781250 82877.992188 61527.109375
69667.914062 82558.210938 61571.988281
69554.460938 82728.093750 61293.503906
69984.710938 83012.289062 61732.957031
70013.398438 82709.070312 62234.269531
69918.632812 82579.562500 64057.656250
59407.613281 86213.117188 55444.066406
59665.484375 86071.968750 55445.941406
70008.453125 82624.421875 62978.906250
70023.406250 82805.679688 63860.945312
66771.078125 83187.804688 56552.566406
66534.289062 83321.351562 56330.488281
66304.726562 83098.531250 56177.175781
66982.515625 83373.695312 56740.414062
67155.835938 83182.445312 57002.714844
61372.300781 83799.039062 55425.429688
61575.851562 83550.539062 55428.128906
67355.640625 83363.601562 57251.093750
67636.179688 83355.601562 57886.160156
67515.062500 83034.960938 57820.105469
67737.062500 83329.195312 58248.425781
67801.796875 83279.617188 58550.527344
67673.812500 83070.132812 58374.109375
67864.851562 83200.046875 58846.683594
68021.414062 83454.382812 58999.429688
68156.312500 83482.734375 59282.847656
67986.781250 83180.015625 59169.480469
68162.875000 83219.273438 59487.644531
68178.281250 82986.218750 59665.066406
68383.468750 83242.390625 59814.671875
69925.742188 83185.539062 61497.199219
70310.250000 83311.406250 62280.781250
70329.007812 83295.328125 62585.531250
70178.820312 82986.804688 62466.292969
70245.960938 83129.937500 62851.246094
70103.671875 82802.523438 62773.890625
70397.726562 83477.437500 62860.679688
70296.359375 83321.890625 63289.027344
70125.257812 82915.140625 63169.757812
70256.585938 83331.226562 63836.039062
70168.273438 83095.054688 63630.746094
76924.656250 64168.785156 27006.787109
76901.875000 63871.925781 27007.095703
66515.156250 83666.906250 56287.703125
66761.554688 83533.851562 56500.152344
66998.046875 83768.492188 56697.351562
67198.789062 83545.062500 56961.015625
63289.894531 83197.523438 55389.835938
63538.750000 83178.625000 55388.316406
67418.984375 83767.031250 57196.347656
67553.710938 83557.617188 57530.019531
67899.820312 83825.859375 58153.632812
67922.578125 83644.250000 58458.683594
67793.710938 83584.734375 58115.480469
67763.773438 83781.445312 57835.789062
78971.062500 100762.945312 59615.890625
79021.445312 100811.359375 59341.160156
79239.843750 100938.882812 59445.253906
68156.421875 83691.828125 59096.882812
68252.351562 84013.968750 59000.031250
68302.921875 83790.312500 59331.207031
63141.375000 82973.570312 55393.589844
68337.984375 83542.796875 59572.984375
68494.117188 83877.460938 59620.722656
68778.781250 83122.835938 60337.000000
68660.328125 83370.570312 60104.957031
69087.578125 83798.203125 60399.761719
68930.414062 83459.429688 60367.816406
68816.609375 83717.500000 60139.250000
69208.343750 83538.132812 60614.363281
69334.445312 83289.218750 60821.031250
69057.203125 83197.906250 60590.203125
69485.562500 83610.710938 60839.156250
62093.316406 83119.078125 55427.613281
62325.078125 83079.609375 55421.347656
62180.570312 82925.804688 55429.265625
70011.132812 83728.976562 61277.882812
70081.101562 83486.148438 61509.265625
69846.242188 83417.085938 61262.710938
69755.656250 83672.234375 61053.363281
69593.187500 83362.085938 61034.617188
70122.828125 83265.867188 61753.699219
70265.164062 83353.523438 61990.917969
70124.312500 83043.296875 62044.617188
70364.914062 83551.328125 63647.320313
70454.148438 83672.835938 63186.183594
70482.460938 83889.390625 63945.816406
70462.960938 83608.445312 62497.468750
66724.109375 83870.945312 56440.203125
66900.359375 84123.625000 56569.929687
67145.828125 84096.578125 56794.167969
67231.382812 83847.421875 56928.460937
67363.796875 84084.632812 57027.007813
67536.250000 84082.398438 57242.628906
67642.289062 83934.390625 57478.957031
67838.250000 84162.632812 57699.128906
67949.906250 84080.953125 58012.453125
68089.210938 84293.085938 58154.300781
68057.007812 84049.648438 58355.839844
68203.648438 84382.226562 58394.425781
68422.968750 84340.843750 59126.140625
68442.257812 84111.414062 59362.144531
68636.796875 84207.703125 59650.195312
68874.500000 84324.132812 59922.347656
68719.351562 83971.625000 59900.523438
68980.195312 84065.828125 60173.550781
69366.687500 83866.992188 60637.785156
69811.617188 84237.437500 60856.386719
69919.304688 83981.125000 61062.769531
69646.828125 83928.250000 60852.898438
70171.367188 84033.726562 61289.269531
70238.328125 83791.398438 61529.468750
70426.039062 83864.945312 61815.820312
70272.898438 83558.046875 61779.539062
70570.875000 83965.320312 62100.550781
70421.937500 83633.062500 62110.750000
70554.890625 83830.671875 62319.921875
70664.859375 84074.335938 62358.019531
70600.820312 83907.828125 62528.226562
70557.453125 83846.468750 62828.035156
70759.914062 84408.773438 63269.171875
70655.828125 84212.335938 63464.226563
70572.156250 84091.039062 63868.828125
70452.687500 83787.203125 63781.699219
66817.640625 84437.992188 56480.976562
66768.132812 84790.992188 56421.484375
67060.390625 84392.015625 56678.316406
67206.648438 84670.046875 56763.050781
67296.304688 84377.984375 56894.273438
67457.484375 84670.359375 56988.117187
67519.671875 84361.140625 57133.671875
67722.882812 84676.242188 57269.699219
67702.289062 84287.039062 57399.457031
67907.210938 84522.218750 57596.437500
68022.007812 84391.554688 57898.378906
68186.367188 84572.734375 58129.156250
68324.601562 84485.890625 58664.710938
68212.710938 84198.859375 58660.867188
68443.390625 84760.304688 58722.523438
68328.953125 84697.101562 58416.468750
68426.828125 84549.054688 58922.261719
68539.140625 84610.796875 59168.554688
68574.570312 84419.656250 59400.550781
68765.531250 84531.257812 59656.917969
69175.898438 84440.281250 60212.996094
69457.687500 84663.062500 60380.394531
69416.835938 84390.734375 60469.441406
69529.437500 84182.382812 60652.652344
69254.046875 84127.664062 60431.234375
69690.804688 84518.867188 60636.089844
70081.734375 84274.984375 61067.355469
65035.671875 82704.585938 55562.828125
70437.601562 84576.132812 61268.914063
70564.468750 84454.750000 61556.167969
70324.140625 84328.601562 61292.644531
70239.109375 84545.687500 61070.640625
70395.601562 84104.390625 61549.007812
70580.046875 84181.734375 61846.320312
70745.453125 84489.875000 61916.566406
70708.343750 84254.531250 62144.316406
70776.039062 84322.171875 62393.171875
70754.273438 84481.656250 63693.847656
70823.960938 84714.726562 64071.085938
70680.078125 84384.609375 64073.167969
70588.734375 84181.164062 64146.437500
66984.015625 84645.289062 56588.851562
67063.203125 84925.843750 56614.484375
67602.585938 84933.968750 57053.976562
67985.281250 84892.625000 57512.132812
67822.218750 85071.429688 57229.488281
68318.210938 84953.687500 58111.656250
68114.531250 84735.945312 57826.804688
68477.382812 85040.828125 58497.375000
68590.343750 85030.148438 58875.476562
68641.890625 84877.593750 59169.683594
68522.671875 84765.281250 58971.140625
68853.062500 84806.179688 59622.757812
69024.734375 84715.289062 59903.710938
61945.480469 82068.093750 55459.671875
62055.953125 82288.343750 55448.468750
62169.539062 82088.648438 55447.457031
69275.726562 84768.937500 60160.406250
69492.078125 84971.937500 60260.378906
69723.265625 84864.593750 60501.113281
69919.945312 84754.054688 60702.800781
70160.859375 84792.781250 60874.406250
69986.687500 84520.601562 60865.191406
70407.914062 84799.992188 61099.812500
70605.460938 85063.125000 61169.136719
70611.023438 84779.203125 61367.042969
70814.039062 85346.296875 61255.894531
70812.656250 85058.695312 61468.148438
70783.820312 84767.445312 61686.566406
70882.726562 84676.796875 63278.832031
70920.679688 84790.976562 62025.714844
70849.976562 84535.304688 62235.210938
70998.164062 84821.593750 62350.660156
70890.062500 84569.531250 62576.371094
71030.992188 84866.148438 62624.441406
96734.210938 66966.585938 62247.554688
96853.679688 66722.585938 62250.140625
70732.414062 84534.914062 64230.597656
66692.710938 85641.453125 56298.664062
66919.257812 85480.164062 56448.730469
66661.398438 85334.320312 56311.144531
67178.835938 85283.773438 56641.785156
67443.195312 85510.117188 56779.144531
66870.507812 85147.875000 56456.839844
67697.054688 85546.750000 56958.148437
67882.859375 85422.164062 57163.355469
68206.109375 85099.179688 57744.699219
68286.000000 85450.695312 57654.816406
68393.132812 85318.695312 57962.730469
61943.277344 82905.125000 55436.886719
61871.093750 82550.187500 55449.445312
61694.964844 82816.625000 55446.625000
68544.328125 85514.343750 58185.082031
68467.351562 85235.875000 58238.371094
68578.554688 85370.562500 58451.937500
68609.757812 85260.562500 58684.992187
68721.398438 85350.546875 58921.742188
68806.656250 84987.398438 59419.117188
68687.546875 84706.234375 59409.753906
68753.101562 85166.015625 59167.281250
68876.492188 85467.070312 59182.113281
58078.007813 82104.375000 52756.636719
69027.515625 85081.093750 59698.003906
69269.625000 85342.921875 59844.593750
69260.203125 85032.328125 60004.089844
69504.195312 85288.242188 60107.230469
69753.710938 85195.687500 60363.691406
70036.320312 85078.828125 60638.941406
70356.796875 85082.789062 60901.746094
