1230
60570.480469 47843.171875 41590.777344
60664.257812 48123.757812 41401.593750
60738.242188 48143.078125 41825.750000
60701.488281 48073.558594 42267.160156
30968.449219 78567.804688 37895.628906
60552.167969 47833.960938 42373.582031
60582.289062 48045.210938 42693.175781
60939.843750 48293.679688 33634.593750
60923.988281 48157.039062 33941.394531
60894.226562 48007.195312 34241.742188
60867.019531 47894.164062 34506.730469
60859.355469 47929.949219 35864.363281
60750.367188 47665.562500 35848.207031
58777.179687 48648.812500 44313.046875
59342.726562 48457.250000 44049.738281
59586.296875 48597.273438 43976.972656
59082.011719 48535.769531 44171.324219
59839.511719 48425.394531 43788.058594
30911.976562 78207.000000 37515.320312
60136.750000 48632.773438 43677.164062
59869.648437 48794.746094 43896.339844
60352.679687 48384.375000 29870.628906
60370.832031 48188.453125 43218.574219
60400.777344 48507.453125 43393.875000
30854.433594 78374.851562 37736.175781
32437.347656 78254.421875 36830.707031
60406.503906 48429.371094 30207.675781
60464.742188 48473.519531 30527.712891
60432.468750 48236.859375 30704.822266
60536.648438 48497.855469 30915.585937
60629.359375 48627.746094 31259.429688
60901.289062 48615.527344 32743.109375
60733.804688 48349.019531 37390.269531
60869.351562 48646.253906 37219.097656
60787.636719 48653.585938 37586.152344
60646.355469 48360.726562 37768.843750
60567.550781 48390.761719 38160.871094
60709.105469 48672.804688 37955.417969
60510.039063 48436.320312 38540.785156
60649.191406 48747.113281 38355.363281
60401.195312 48319.058594 39048.390625
60504.011719 48633.214844 39124.242188
60475.414062 48466.710938 38842.589844
60570.960938 48712.054688 38752.332031
60480.417969 48593.050781 39511.984375
60612.281250 48479.117188 40667.628906
60634.433594 48348.902344 40920.398438
60718.320312 48380.535156 41192.156250
60817.324219 48411.289062 41533.589844
60875.843750 48358.976562 42160.421875
60804.085938 48327.464844 42548.726562
60657.121094 48403.113281 42994.417969
60904.675781 48569.628906 42735.859375
60895.972656 48394.656250 33009.792969
60924.195312 48360.187500 33302.785156
60969.570312 48649.582031 33138.281250
61007.386719 48624.636719 33511.605469
61025.187500 48525.359375 33936.250000
60982.890625 48283.128906 34206.078125
60971.253906 48194.882812 34553.824219
61061.019531 48542.117188 34363.117188
60880.519531 47912.035156 34799.410156
60983.394531 48206.339844 34976.632812
61075.093750 48534.292969 34772.527344
60973.496094 48187.226562 35366.195312
61075.355469 48520.085938 35186.707031
60953.359375 48168.742188 35726.417969
61056.503906 48482.023438 35575.593750
60914.375000 48135.382812 36056.105469
61021.660156 48437.925781 35933.484375
63242.519531 51706.882812 14776.401367
63389.226563 51925.156250 14705.132812
60968.480469 48390.324219 36279.300781
60896.750000 48349.679688 36638.660156
60817.214844 48339.000000 37014.066406
60946.480469 48648.890625 36855.542969
60854.421875 48673.828125 41277.910156
60900.132812 48447.687500 41846.738281
60992.003906 48587.078125 42423.664062
59324.925781 48758.117188 44122.207031
59289.906250 49109.050781 44196.953125
59027.683594 48884.328125 44252.343750
57468.906250 54537.949219 11718.587891
57566.105469 54326.316406 11701.260742
37382.664062 82012.804688 56017.781250
37402.574219 82110.343750 55764.031250
37586.117188 82179.320312 55952.097656
60421.281250 48851.046875 43569.402344
60162.519531 49000.308594 43803.707031
60340.925781 48443.203125 29570.750000
60418.363281 48688.984375 29700.447266
60562.148438 48845.089844 30633.384766
60631.570312 48856.171875 31037.738281
60766.843750 48948.007812 38079.996094
60577.664062 48844.484375 39815.632812
60554.117188 48641.726562 40146.082031
60674.554687 48948.503906 40274.054688
60603.636719 48640.015625 40416.953125
60729.742188 48602.707031 40948.000000
30599.238281 78215.351562 37694.742188
60897.664062 48772.496094 43000.230469
60665.085938 48762.152344 43292.960938
61047.734375 49008.792969 33317.089844
61086.769531 48920.640625 33757.269531
61116.910156 48870.160156 34162.957031
61153.683594 49219.308594 34006.441406
61141.417969 48854.351562 34560.550781
61181.191406 49169.089844 34383.757812
61161.816406 48892.945312 34989.636719
61195.949219 49121.179688 34709.691406
61145.847656 48822.101562 35420.679688
61206.480469 49122.988281 35286.191406
61117.578125 48768.238281 35801.355469
61201.894531 49151.035156 35666.187500
61072.656250 48706.468750 36154.695312
61157.761719 49026.671875 36043.128906
61015.316406 48667.386719 36499.964844
61111.222656 48974.281250 36369.679688
61054.261719 48956.277344 36708.406250
60985.117188 48940.210938 37057.382812
60911.531250 48940.636719 37407.632812
60706.527344 48783.613281 40648.453125
60858.511719 48957.949219 40965.421875
61003.640625 48980.914062 41362.414062
60989.164062 48724.003906 41669.035156
61025.585938 48644.296875 42064.511719
61159.500000 48941.839844 41968.363281
61073.484375 48831.113281 42693.664062
61159.304688 48884.644531 42343.929688
58967.406250 49240.316406 44328.402344
59242.718750 49474.328125 44262.238281
59590.796875 48959.488281 44063.003906
59877.699219 49167.589844 43993.343750
59570.140625 49328.687500 44138.746094
60180.578125 49375.664062 43906.652344
60503.632812 49000.738281 29858.740234
60548.199219 49280.074219 29638.671875
60452.214844 48698.984375 30031.837891
60536.835937 48987.093750 30237.835938
60587.203125 49382.710938 30048.960938
60486.328125 48689.046875 30324.244141
60621.031250 49297.933594 30543.474609
60641.148438 49110.363281 30864.132812
60691.687500 49427.714844 30975.035156
60686.828125 49127.636719 31132.015625
60742.582031 49314.492188 31356.886719
60767.253906 49316.621094 38701.964844
60765.300781 49116.804688 38344.925781
60673.238281 48978.519531 38633.738281
60637.367188 49017.617188 39005.546875
60750.039062 49414.453125 39105.703125
60734.390625 49419.460938 39513.949219
30133.908203 78321.062500 38103.746094
60875.472656 49051.488281 43261.218750
60654.550781 49040.398438 43477.218750
60789.792969 49371.503906 43517.300781
32773.195312 77498.476562 35826.308594
32805.824219 77278.875000 35592.789062
33090.421875 77416.875000 35616.789062
60791.753906 49182.312500 31692.000000
60977.066406 49422.820312 32616.060547
61021.386719 49223.339844 32957.367188
61037.128906 49534.265625 32944.078125
60986.613281 48901.378906 32957.007812
61083.621094 49466.976562 33283.492188
61119.851562 49288.453125 33636.554688
61135.171875 49587.734375 33597.273438
61167.273438 49537.125000 33875.343750
61204.207031 49540.554688 34249.617188
57424.578125 56087.808594 11675.221680
57166.503906 56099.496094 11762.966797
61225.566406 49414.855469 34640.882812
61225.191406 49275.253906 34987.851562
61253.320312 49474.363281 35354.738281
61178.828125 49226.375000 36255.511719
61150.363281 49286.046875 36561.593750
61222.644531 49508.515625 36298.917969
61081.472656 49232.101562 36917.828125
61158.941406 49525.085938 36825.402344
61015.058594 49210.640625 37243.847656
61097.914062 49474.765625 37125.863281
61016.378906 49568.535156 37679.753906
60952.085938 49229.804688 37575.082031
60881.175781 49266.519531 37969.589844
60836.082031 48951.625000 37763.730469
60716.671875 49270.339844 39912.253906
60828.949219 49375.988281 40370.128906
60789.730469 49077.421875 40607.027344
43920.843750 47437.433594 62791.300781
43715.605469 47487.046875 62837.894531
43794.398438 47659.722656 62899.742188
60918.683594 49312.476562 40776.933594
61035.394531 49271.113281 41136.699219
61120.773438 49018.675781 41659.035156
61273.808594 49174.289062 42659.488281
61339.707031 49225.492188 42264.523438
61094.812500 49092.417969 42987.550781
61044.648437 49320.425781 43246.464844
61221.761719 49354.804688 36002.050781
61254.976562 49499.117188 35730.597656
61165.753906 49252.742188 41484.996094
61271.011719 49228.710938 41837.839844
58894.699219 49622.031250 44405.320312
59203.011719 49835.914062 44309.843750
37430.437500 82209.906250 55508.484375
37243.656250 82133.578125 55287.750000
59868.828125 49549.000000 44071.910156
59843.640625 49943.914062 44130.449219
59535.460938 49704.796875 44197.195312
60459.398438 49198.832031 43691.980469
60603.593750 49576.304688 29729.992188
60643.214844 49842.398438 29566.371094
60645.871094 49845.191406 29969.839844
60648.480469 49695.421875 30364.679688
60672.976562 49639.585938 30692.126953
60689.164062 49950.535156 30632.443359
60713.949219 49822.414062 30952.251953
60752.082031 49676.046875 31283.130859
60498.007812 49577.488281 43795.484375
37220.246094 82034.500000 55563.089844
60186.273437 49768.781250 43990.945312
60510.421875 49966.976562 43896.542969
60802.859375 49538.195312 31626.171875
60798.421875 49893.984375 31554.425781
60850.894531 49755.464844 31872.250000
60923.875000 49486.277344 32290.832031
60948.070312 49770.046875 32421.615234
61009.136719 49763.621094 32770.917969
61061.753906 49804.050781 33102.179688
61113.332031 49828.945312 33438.992188
61192.222656 49773.503906 34017.695312
61244.406250 49762.125000 34583.429688
61222.656250 49809.371094 36746.000000
61209.089844 49598.031250 36566.328125
61169.031250 49751.464844 37043.710938
61104.933594 49686.046875 37344.300781
61179.531250 49969.691406 37256.210938
61039.625000 49435.371094 37391.792969
61116.871094 49908.621094 37568.062500
60961.984375 49598.238281 38023.445312
61052.460937 49860.265625 37895.082031
60989.117188 49842.367188 38262.265625
60873.562500 49468.902344 38321.972656
60890.089844 49694.988281 38638.699219
60814.386719 49547.230469 38864.343750
60869.632812 49769.972656 39016.050781
60812.488281 49660.503906 39321.714844
60824.828125 49707.597656 39575.445312
60793.011719 49576.703125 39781.261719
60911.015625 49883.222656 39865.281250
60832.652344 49588.148438 40051.585938
60974.359375 49811.890625 40339.636719
60972.765625 49592.566406 40636.515625
61080.308594 49571.589844 40948.300781
61084.175781 49643.941406 43392.308594
60812.007812 49793.531250 43676.457031
61249.539062 50111.601562 34538.902344
61274.617187 49975.660156 34876.597656
61258.160156 49626.003906 34946.746094
61287.058594 49862.371094 35237.210938
61289.164062 49789.574219 35607.734375
61274.789062 49732.503906 36000.433594
61267.343750 49867.832031 36402.195312
61121.542969 49852.437500 40747.519531
61271.066406 49824.269531 41100.703125
61217.378906 49534.621094 41292.820312
61424.359375 49776.027344 41452.906250
61351.386719 49498.507812 41648.074219
61555.917969 49739.183594 41813.093750
61460.800781 49494.324219 42029.730469
61553.976562 49603.648438 42473.257812
61639.792969 49744.062500 42144.546875
61278.773438 49468.765625 43031.851562
32562.751953 77670.375000 36095.527344
58812.785156 50218.484375 44528.390625
58943.441406 49946.957031 44417.671875
59139.519531 50176.804688 44363.894531
59481.371094 50087.890625 44244.863281
59789.171875 50344.753906 44175.433594
60685.339844 50193.035156 29721.396484
60680.109375 50179.582031 30040.628906
60676.816406 50062.589844 30305.593750
60703.335938 50294.953125 30579.683594
60722.121094 50175.726562 30905.042969
60754.128906 50040.257812 31229.359375
60528.691406 50290.898438 43958.132812
60187.035156 50201.097656 44054.941406
60871.238281 50300.152344 32102.000000
60891.214844 49948.226562 32120.976562
60930.433594 50136.972656 32403.371094
61022.414062 50064.308594 32914.097656
61159.574219 49818.550781 33752.917969
61133.804688 50122.585938 33627.984375
61182.375000 50056.980469 33952.855469
61219.234375 49917.035156 34257.984375
61200.625000 50208.421875 37444.574219
61143.496094 50160.597656 37778.980469
61086.949219 50098.050781 38067.222656
61077.367188 50215.015625 38367.652344
60986.484375 49978.832031 38544.375000
60949.812500 49953.605469 38777.937500
61030.445312 50189.226562 38695.210938
60984.527344 50130.761719 39013.132812
60922.765625 49985.632812 39406.195312
61179.996094 50526.613281 40060.441406
61073.957031 50191.652344 40160.859375
61248.785156 50450.949219 40390.113281
61175.160156 50146.710938 40546.652344
61395.421875 50275.097656 43437.410156
61360.472656 49885.035156 43245.660156
61108.179688 50030.253906 43560.335938
61277.136719 50308.722656 34815.324219
61300.507812 50202.472656 35143.539062
61313.429688 50117.222656 35483.949219
61315.531250 50056.921875 35817.738281
61333.578125 50315.562500 35691.722656
61309.488281 50056.734375 36122.937500
61320.933594 50293.351562 36400.253906
61273.246094 50074.226562 36674.175781
61233.832031 50032.750000 36958.585938
61241.703125 50218.753906 37154.718750
61385.804688 50408.761719 40720.261719
61326.378906 50114.843750 40906.546875
61559.164062 50358.355469 41058.074219
61494.656250 50063.613281 41257.734375
61875.328125 50208.707031 42737.203125
61701.054688 49928.789062 42727.925781
61654.140625 50151.609375 43069.468750
61517.152344 49744.250000 42893.042969
61650.292969 50008.640625 41619.367188
61761.308594 49974.945312 41991.804688
61800.445313 49977.378906 42397.074219
61985.128906 50258.804688 42471.839844
61956.882812 50218.406250 42168.089844
59385.792969 50511.324219 44308.140625
59775.468750 50774.582031 44198.285156
60718.261719 50552.121094 29737.775391
60698.351562 50394.710938 29954.257812
60698.691406 50416.984375 30244.056641
60713.609375 50646.714844 30019.642578
60711.984375 50631.691406 30534.619141
60724.128906 50518.589844 30856.375000
60749.371094 50390.933594 31180.759766
60787.453125 50245.800781 31501.445312
40470.867188 80958.742188 61840.546875
40416.257812 81141.257812 61538.031250
40603.058594 81097.757812 61672.171875
60808.832031 50174.976562 43803.707031
60836.453125 50095.445312 31817.992188
60968.640625 50681.644531 32875.542969
60973.039063 50295.621094 32712.132812
61018.031250 50353.113281 33000.800781
61210.171875 50267.980469 34211.667969
61106.539062 50414.777344 38602.058594
61086.683594 50431.199219 38888.515625
61172.976562 50668.863281 38690.085938
61077.203125 50441.375000 39312.097656
61172.406250 50727.015625 39032.015625
61218.796875 50847.152344 39380.203125
61178.218750 50662.468750 39715.046875
61095.871094 50407.300781 43709.496094
60744.515625 50566.593750 43918.128906
61072.000000 50767.875000 43826.257812
61190.246094 50635.066406 34184.648438
61241.347656 50460.207031 34501.675781
61222.644531 50822.496094 34488.511719
61270.324219 50644.234375 34794.433594
61299.015625 50487.566406 35054.371094
61340.539062 50861.886719 35535.179688
61324.351562 50483.320312 35399.769531
61349.875000 50591.687500 35773.179688
33134.031250 77653.203125 35841.054688
61296.613281 50355.812500 36855.359375
61285.058594 50515.835938 37232.144531
61266.503906 50744.839844 37872.011719
61172.707031 50423.609375 38040.871094
61234.464844 50722.453125 38164.515625
61170.347656 50559.300781 38382.167969
61323.589844 51015.226562 39727.203125
61308.601562 50835.593750 40036.742188
61316.546875 50695.191406 40279.804688
61443.171875 50694.308594 40544.253906
61616.843750 50658.496094 40858.527344
61803.511719 50605.265625 41194.101562
61666.257812 50544.281250 43331.253906
61909.996094 50504.500000 43005.347656
30401.929688 78005.648438 37569.132812
61380.445312 50641.035156 43612.515625
61738.511719 50302.812500 41415.742188
14866.907227 51910.621094 36778.894531
15065.537109 51971.414062 36551.785156
14875.646484 52144.902344 36660.554688
62003.343750 50580.210938 41587.050781
61879.824219 50246.851562 41794.351562
62085.539063 50479.191406 41985.089844
30427.781250 78332.703125 37928.410156
62119.382812 50471.035156 42335.398438
62070.167969 50492.703125 42670.511719
61906.886719 50837.269531 43250.500000
62154.511719 50844.367188 42895.957031
52137.050781 81477.875000 55762.796875
51910.039063 81598.273438 55642.863281
52127.363281 81540.335938 55381.140625
59096.437500 50772.125000 44466.902344
59042.269531 50455.718750 44439.578125
58814.429688 50592.480469 44603.207031
59406.878906 50953.058594 44342.933594
59688.417969 51166.031250 44245.933594
60056.601562 50541.375000 44116.785156
60365.398438 50551.214844 44039.789062
60153.371094 50833.996094 44104.816406
60256.507812 51197.980469 44098.718750
59959.921875 51064.218750 44154.007812
60735.933594 50868.109375 29803.464844
60722.976562 50942.320312 30106.435547
60711.949219 50721.687500 30271.300781
60715.441406 50981.980469 30457.626953
60720.535156 50853.636719 30802.505859
60771.253906 50591.042969 31456.984375
60739.070312 50735.964844 31134.533203
60500.347656 50881.054688 44031.117188
60804.988281 50911.093750 43956.726562
60751.242188 50928.472656 31422.632812
60789.558594 50789.914062 31731.330078
60815.761719 50445.796875 31776.941406
60841.929688 50671.890625 32071.906250
60801.937500 51042.851562 31993.083984
60909.992187 50541.375000 32450.681641
51890.058594 81567.296875 55935.246094
61013.648438 50839.824219 33224.722656
61021.550781 51084.308594 33415.160156
61128.972656 50838.570312 33893.464844
61028.781250 51117.332031 43917.851562
61164.109375 50997.757812 34188.964844
61190.804688 51228.546875 34490.902344
61237.234375 51338.281250 34844.003906
61254.335938 50996.343750 34797.187500
61360.367188 50642.562500 36150.839844
61357.601562 50714.324219 36612.109375
61361.414062 50911.878906 37052.828125
61387.515625 51191.578125 37413.210938
61314.007812 50814.875000 37501.449219
61230.894531 50476.144531 37648.792969
61343.839844 51064.214844 37771.449219
61304.402344 50981.671875 38087.777344
61261.347656 50906.917969 38432.605469
61256.476562 50963.261719 38808.527344
61264.046875 51001.964844 39112.742188
61466.046875 51146.390625 40062.667969
61467.105469 50938.195312 40332.007812
61677.988281 50988.457031 40654.320312
61853.085938 51144.574219 43467.582031
61635.531250 50889.019531 43529.433594
61339.386719 50989.859375 43753.820312
61584.320312 51220.019531 43687.742188
61896.234375 51148.660156 40845.093750
61847.800781 50897.851562 40981.691406
62047.386719 51137.164062 41080.621094
62027.890625 50871.121094 41291.863281
24241.074219 44321.582031 31522.701172
24005.787109 44260.316406 31657.585938
24202.064453 44063.062500 31681.421875
52359.722656 81397.820312 55596.289062
62335.988281 51233.921875 42911.519531
62106.960938 51150.156250 43206.398438
62210.437500 51140.269531 41356.117188
62206.156250 50911.398438 41603.660156
62197.558594 50727.847656 41853.972656
62361.046875 51010.335938 41942.390625
62252.632812 50726.199219 42162.738281
62394.148437 51009.988281 42331.589844
62245.144531 50747.410156 42513.785156
62351.433594 51024.371094 42646.496094
59128.492188 51145.121094 44525.394531
58851.199219 50957.375000 44672.687500
58900.410156 51323.050781 44750.421875
59160.707031 51505.343750 44603.320312
59406.906250 51332.558594 44400.113281
59677.589844 51513.066406 44295.425781
59937.675781 51352.792969 44177.105469
60161.066406 51550.019531 44141.945312
60742.453125 51180.988281 29887.955078
60767.347656 51385.484375 29686.429687
60722.500000 51266.437500 30211.384766
60708.597656 51336.339844 30545.167969
60713.121094 51134.429688 30749.419922
60721.714844 51113.511719 31087.560547
60702.582031 51396.238281 30864.587891
60731.140625 51263.433594 31449.853516
60763.031250 51082.734375 31680.666016
60668.148438 51242.144531 44029.691406
60750.515625 51408.007812 31815.089844
60807.351562 51386.660156 32272.162109
60867.300781 50946.750000 32399.169922
60879.320312 51261.769531 32675.755859
60898.921875 51521.136719 32979.781250
60953.179688 51113.710938 33036.128906
60968.917969 51415.679688 33327.671875
52287.507812 81533.976562 54989.882812
52508.664062 81374.812500 55288.238281
61062.414062 51554.347656 33957.507812
61101.503906 51175.214844 33923.968750
61131.214844 51303.093750 34174.617188
60984.050781 51480.476562 43995.269531
61280.597656 51145.574219 35050.328125
61301.796875 50822.136719 35135.031250
61317.484375 51534.867188 35485.132812
61315.746094 51162.929688 35338.660156
61354.894531 51203.296875 35692.746094
61373.640625 51539.839844 35914.312500
61383.980469 51206.472656 36004.886719
61404.898438 51368.886719 36280.468750
61368.753906 50918.042969 35897.285156
61386.535156 51002.480469 36259.773438
61401.167969 51162.726562 36641.394531
61435.039063 51615.546875 36628.925781
61421.945312 51368.601562 37026.332031
61449.792969 51574.984375 37376.066406
61420.355469 51431.371094 37743.527344
61369.449219 51235.632812 37996.960938
61355.203125 51222.683594 38276.632812
61425.855469 51483.046875 38097.839844
61346.046875 51226.351562 38613.375000
61429.613281 51501.246094 38424.910156
61349.468750 51244.828125 38966.773438
61438.941406 51517.265625 38766.613281
61364.753906 51227.343750 39368.574219
61461.984375 51535.812500 39123.402344
61480.960938 51356.871094 39765.441406
61524.007812 51589.328125 39482.265625
61631.457031 51466.097656 40096.476562
61645.527344 51242.082031 40368.921875
51316.503906 81531.859375 59584.160156
51563.347656 81412.140625 59716.660156
51318.183594 81496.171875 59888.132812
61556.562500 51590.718750 43808.917969
61291.429688 51338.007812 43867.234375
61789.281250 51785.144531 40129.003906
61812.800781 51561.207031 40391.675781
61848.796875 51331.519531 40638.382812
62013.703125 51645.960938 40672.679688
62048.113281 51395.632812 40894.894531
51806.125000 81322.078125 59547.339844
51560.585938 81445.101562 59401.593750
51837.312500 81338.625000 59196.503906
62019.054688 51415.316406 43441.855469
61788.011719 51405.851563 43622.222656
62220.703125 51393.433594 41170.589844
62241.847656 51723.941406 40996.171875
62362.261719 51198.207031 41632.636719
62496.218750 51508.765625 41648.875000
62483.105469 51296.980469 41870.394531
62517.484375 51279.183594 42160.085938
62512.421875 51345.976563 42546.144531
62261.152344 51483.796875 43207.675781
51534.453125 81492.210938 59084.929688
58713.617187 51496.054688 45006.355469
28693.753906 77683.664062 38560.042969
28911.726562 77858.179688 38558.078125
58955.046875 51664.539062 44832.468750
59427.066406 51691.980469 44477.050781
59737.203125 51893.875000 44355.535156
59912.148438 51634.433594 44218.578125
60078.222656 51867.003906 44211.917969
60426.625000 51481.195312 44091.480469
60777.738281 51684.890625 29658.933594
60741.812500 51510.527344 29957.248047
60709.480469 51652.890625 30336.085938
60694.906250 51599.007812 30669.779297
60683.445312 51719.718750 30949.128906
60702.250000 51487.753906 31195.175781
60710.371094 51573.355469 31504.882812
60677.484375 51870.144531 31319.326172
60704.027344 51844.789062 31750.910156
60679.957031 51649.058594 44075.750000
60379.828125 51782.000000 44133.433594
60750.792969 51680.160156 32063.822266
60724.492188 52022.187500 32152.556641
60777.136719 51741.875000 32330.480469
60777.578125 51982.597656 32534.541016
60830.429688 51636.742188 32622.785156
60841.839844 51922.574219 32922.878906
60915.734375 51762.593750 33261.097656
60983.437500 51668.480469 33591.992188
60989.628906 51948.414062 33838.382812
61036.347656 51324.343750 33652.378906
61126.015625 51566.246094 34322.097656
60997.343750 51895.535156 44057.414062
61243.871094 51652.878906 43953.667969
61224.246094 51654.191406 34945.808594
61264.824219 51695.722656 35212.488281
61276.460938 51421.511719 35146.281250
61277.933594 51904.332031 35399.699219
61333.433594 51815.476562 35691.000000
61375.585938 51961.078125 36007.449219
61409.402344 51687.765625 36246.828125
61429.824219 51955.039062 36404.273438
61469.347656 52007.242188 36757.355469
61468.367187 51768.859375 37043.652344
61507.304688 51961.734375 37392.242188
61478.832031 51739.367188 37631.675781
61484.027344 51739.429688 37911.925781
61528.683594 51990.320312 37733.261719
61498.488281 51765.765625 38231.187500
61551.890625 52021.332031 38037.175781
61518.289062 51789.195312 38562.984375
61581.738281 52053.636719 38356.882812
61545.140625 51809.925781 38906.085938
61661.640625 52105.554688 39044.957031
61619.625000 52088.324219 38694.753906
61586.523438 51835.203125 39242.871094
61663.410156 51899.617187 39556.996094
61695.667969 52086.378906 39338.535156
61637.542969 51684.558594 39819.558594
61395.281250 51965.855469 43963.121094
61793.847656 52208.496094 39587.613281
61784.871094 52002.078125 39860.804688
61936.664062 52102.460937 40160.859375
61966.628906 51879.582031 40418.265625
62362.050781 51875.289062 43270.402344
62141.710938 51663.839844 43432.859375
62116.187500 51889.652344 43535.320312
61895.054688 51691.578125 43640.292969
62546.199219 51791.812500 41523.250000
62467.316406 51937.843750 41265.699219
62393.769531 51616.628906 41330.992188
51731.019531 81417.679688 58894.308594
52008.390625 81288.546875 58839.183594
51504.507812 81540.054688 58769.699219
62694.855469 51786.910156 42541.593750
62492.488281 51616.378906 42911.417969
62645.195313 52022.773437 42929.214844
51773.843750 81425.234375 58580.089844
62656.980469 51804.519531 41814.832031
62603.175781 51529.796875 41987.996094
62633.433594 51539.320312 42281.734375
58796.558594 51832.140625 45070.578125
59002.312500 51945.656250 44909.023438
58669.671875 51962.714844 45295.812500
59185.550781 52150.484375 44829.402344
59188.855469 51839.621094 44698.914062
59434.761719 52043.199219 44585.332031
60738.183594 51884.773437 29983.933594
60727.109375 52279.789062 30014.177734
60694.472656 52073.605469 30341.011719
60680.125000 51897.171875 30660.484375
60658.476563 52260.625000 30676.488281
60658.773438 52074.941406 30983.812500
60642.960938 52263.796875 31291.144531
60662.875000 52131.011719 31559.570312
60671.964844 52231.105469 31848.242188
60316.109375 52129.382812 44202.171875
60573.390625 52375.828125 44196.375000
60636.378906 52020.460938 44131.343750
60884.671875 52278.039062 44134.191406
60717.800781 52570.597656 32634.748047
60721.910156 52310.000000 32414.761719
60773.742188 52258.902344 32752.474609
60954.500000 52650.410156 34190.023438
61015.925781 52448.007812 34369.808594
61061.316406 51891.511719 34195.191406
61077.269531 52157.867188 34478.746094
61168.996094 52215.195312 44074.203125
61217.457031 52280.839844 35277.078125
61304.363281 52133.496094 35646.433594
61342.750000 52346.253906 35911.859375
61407.765625 52250.917969 36242.714844
61453.777344 52215.957031 36541.238281
61443.300781 52475.558594 36458.410156
61500.589844 52403.894531 36844.847656
61502.601562 52097.464844 37070.000000
61551.410156 52354.843750 37297.980469
61557.964844 52210.406250 37582.164062
61589.468750 52261.925781 37846.988281
61659.214844 52554.097656 37947.144531
61607.714844 52478.578125 37636.378906
61627.890625 52306.242188 38151.808594
61672.335938 52346.519531 38471.433594
61708.484375 52591.468750 38262.707031
61437.433594 52354.507812 44020.527344
61690.199219 51886.226562 43820.652344
61741.093750 52433.089844 38828.667969
26609.341797 34306.390625 48290.605469
61797.000000 52398.667969 39256.453125
51474.582031 81584.953125 58445.246094
61924.898438 52028.722656 43718.078125
61932.015625 52342.843750 43787.730469
61680.667969 52169.718750 43890.714844
62103.195312 52191.421875 40443.328125
62161.132812 51976.820312 40699.460938
62215.632812 52455.285156 40472.886719
62280.257812 52301.609375 40702.691406
62361.511719 52107.066406 40969.128906
62539.820312 52281.644531 43240.945312
52002.257812 81334.351562 58300.753906
51696.070312 81491.804688 58229.167969
62447.980469 52410.593750 40942.980469
62554.621094 52286.085938 41219.386719
51422.644531 81634.351562 58116.812500
62666.898438 52115.406250 41573.082031
62813.195312 52122.554688 42003.882812
62725.757812 51795.113281 42160.707031
62822.417969 52027.277344 42321.964844
62850.105469 52212.093750 42592.425781
58908.695312 52207.000000 45137.332031
58822.710938 52514.535156 45408.429688
59423.187500 52377.062500 44715.796875
59020.394531 52555.632813 45179.832031
59188.546875 52461.562500 44960.871094
59685.308594 52281.476562 44494.984375
59993.500000 52211.062500 44319.257812
59921.531250 52570.722656 44454.027344
59643.296875 52570.148437 44620.667969
60675.640625 52452.089844 30367.580078
60710.570312 52653.890625 30063.705078
60636.203125 52619.675781 30690.822266
60632.031250 52438.496094 30991.339844
60613.535156 52625.601562 31293.830078
60607.437500 52788.761719 30989.525391
60635.246094 52446.753906 31589.101563
60641.207031 52581.363281 31914.638672
60665.019531 52665.500000 32285.080078
60256.917969 52501.851562 44297.910156
60554.757812 52727.660156 44264.570312
60774.445312 52504.414062 29712.480469
60894.433594 52867.378906 34022.890625
61097.230469 52822.523438 35024.160156
61139.703125 52535.402344 35052.000000
61179.980469 52658.140625 35300.589844
60804.140625 52566.390625 44187.332031
61132.992188 52572.621094 44127.804688
61264.121094 52489.386719 35591.472656
61308.773438 52685.953125 35851.398438
61382.328125 52563.835938 36148.304688
61424.386719 52765.335938 36367.058594
61475.843750 52672.742188 36625.488281
61525.777344 52787.980469 36872.191406
61559.183594 52639.972656 37125.777344
61609.328125 52697.855469 37414.257812
61670.183594 52789.292969 37721.671875
61540.707031 52749.597656 44036.660156
61743.957031 52891.687500 38068.023438
61751.050781 52606.906250 38541.500000
61788.949219 52840.519531 38405.960938
61839.945312 52826.007812 38742.945312
61848.964844 52674.320312 39046.781250
61931.917969 52757.632812 39331.304688
61927.109375 52545.988281 39610.082031
62168.171875 53016.425781 39873.203125
62051.273438 52889.957031 39632.007812
62087.703125 52699.140625 39953.953125
62217.585937 52220.085938 43543.414062
62079.324219 52415.433594 40207.421875
62236.167969 52700.363281 40323.859375
62434.035156 52622.093750 43471.738281
62714.855469 52452.566406 41439.507812
62840.273438 52442.253906 41754.367188
62952.113281 52587.679688 42665.050781
62963.761719 52448.687500 42398.281250
62781.050781 52407.062500 42951.593750
62679.937500 52581.652344 43206.757812
62903.027344 52249.128906 42288.324219
62945.195313 52463.867188 42108.621094
62989.074219 52795.226562 41887.871094
63046.257813 52763.851562 42322.109375
51515.125000 81640.968750 57032.574219
51768.718750 81539.781250 56791.062500
51814.523438 81495.226562 57151.773438
58786.871094 52789.664062 45632.859375
59191.636719 52726.847656 45080.882812
52070.730469 81390.023438 56925.812500
59781.390625 52867.265625 44642.699219
59442.054688 52735.421875 44850.183594
51702.984375 81596.914062 56442.644531
52047.316406 81435.445312 56504.824219
60208.160156 52962.304688 44436.867188
60657.378906 52810.082031 30393.134766
60641.925781 53156.457031 30410.869141
60697.015625 53006.714844 30097.460938
60616.304688 52964.906250 30698.031250
60585.292969 53121.253906 30980.017578
60585.792969 52971.128906 31267.500000
60599.542969 52854.218750 31622.667969
60567.597656 53165.207031 31480.183594
60565.285156 53262.343750 31792.248047
60610.996094 52936.144531 32013.570313
60622.628906 53072.257813 44306.421875
60761.761719 52856.906250 29771.583984
61004.957031 52692.550781 34491.257812
61138.898437 52982.917969 35285.902344
60943.582031 53184.457031 44245.292969
60877.968750 52853.160156 44214.925781
61225.246094 52833.613281 35565.183594
61276.410156 53019.558594 35822.558594
61355.851563 52875.886719 36088.968750
61404.875000 53075.773438 36316.011719
61473.878906 52946.156250 36597.320312
61534.468750 53113.351562 36853.214844
61595.882812 52964.550781 37182.183594
61657.480469 52966.890625 37498.886719
61700.867188 52454.671875 43935.519531
61516.285156 53157.683594 44104.402344
61210.203125 52975.128906 44161.988281
61667.800781 53241.460938 37403.875000
61730.707031 53151.214844 37753.660156
61814.878906 53245.574219 38088.707031
61822.625000 53073.320313 38298.972656
61860.144531 53056.691406 38527.117188
61898.261719 53337.371094 38409.539062
61947.339844 53213.796875 38780.460938
61940.945312 52969.492188 39067.144531
62042.398438 53079.945312 39366.960938
61863.835938 53069.015625 43947.316406
62183.441406 52867.527344 43723.449219
61899.296875 52667.914062 43865.933594
62289.761719 53256.406250 39986.757812
62260.886719 52986.183594 40147.839844
62408.933594 53250.847656 40289.792969
62398.386719 52650.531250 40697.296875
62505.339844 53065.062500 43523.378906
62141.699219 52539.949219 43689.648438
62404.195312 52978.246094 40482.023438
62672.644531 52829.507812 43303.250000
62868.789062 52797.269531 43013.332031
62788.980469 53101.261719 43255.316406
62837.625000 52736.574219 41522.687500
62960.957031 53000.378906 41614.464844
63051.726563 52940.632812 42678.367188
58775.816406 53318.035156 46082.882812
58773.761719 53056.789062 45852.292969
58963.855469 53365.304688 45769.234375
59029.261719 52856.089844 45336.433594
51885.476562 81535.968750 56224.941406
59186.398438 53296.882812 45405.757812
58939.679687 53076.367188 45591.160156
59473.785156 53358.628906 45110.121094
59602.527344 53110.992188 44875.382812
59314.210938 53016.457031 45103.425781
59913.660156 53229.414062 44683.683594
59729.921875 53441.910156 44906.019531
60686.480469 53360.507812 30117.646484
60626.179687 53501.691406 30433.935547
60672.445312 53754.812500 30140.246094
60598.062500 53298.160156 30706.968750
60564.242188 53433.265625 30984.341797
60561.296875 53281.949219 31235.300781
60585.878906 53251.851562 32151.080078
60549.640625 53503.355469 32022.328125
60565.746094 53510.871094 32262.359375
60616.011719 53285.144531 32503.425781
60626.156250 53525.433594 32825.230469
60446.207031 53287.625000 44402.636719
60209.816406 53400.882812 44549.128906
60754.765625 53199.539062 29799.753906
60862.937500 53394.171875 34227.753906
60929.445312 52994.175781 34307.945312
60936.562500 53250.464844 34520.464844
60719.679688 53396.519531 44330.929688
60993.980469 53474.468750 44271.417969
61184.441406 53173.996094 35538.804688
61250.902344 53402.832031 35842.011719
61332.042969 53161.250000 36059.226562
61369.042969 53443.851562 36242.949219
61466.601562 53272.089844 36569.925781
61533.003906 53396.398438 36816.328125
61598.652344 53316.148438 37085.265625
61236.566406 53328.671875 44199.566406
61506.902344 53480.511719 44148.828125
61741.730469 53498.164062 37604.289062
61800.968750 53439.972656 37878.183594
61881.675781 53589.914062 38126.500000
61955.492188 53638.398437 38396.140625
62000.851562 53559.519531 38655.277344
62042.582031 53280.617188 39124.960938
62051.503906 53488.800781 38932.855469
62117.640625 53813.265625 38886.703125
62154.160156 53601.664062 39213.589844
62127.960937 53350.308594 39381.472656
62174.019531 53240.175781 39658.796875
62236.605469 53558.625000 39540.289062
62322.894531 53523.542969 39838.394531
62426.339844 53505.398438 40131.597656
62206.156250 53254.976562 43783.488281
61946.890625 53447.179688 43969.648438
62217.832031 53629.109375 43845.625000
62531.667969 53488.507812 40395.339844
62575.476562 53770.742188 40290.679688
62696.914062 53632.167969 40654.386719
62896.636719 53422.050781 43234.371094
62999.496094 53175.132812 42973.835938
62691.664062 53334.503906 43432.875000
62481.675781 53455.054688 43635.386719
63029.285156 53317.976562 41546.367188
63072.527344 53121.300781 41811.265625
63199.507812 53437.992188 41923.113281
63130.316406 53086.402344 42107.683594
63228.925781 53368.917969 42316.183594
63144.921875 53080.328125 42415.140625
63158.738281 53288.214844 42659.757812
33007.285156 77133.960938 35380.468750
58951.015625 53684.523438 46060.781250
58865.539062 53848.941406 46421.578125
59200.039062 53728.695312 45666.773438
59615.468750 53619.250000 45092.476562
59987.226562 53571.902344 44751.964844
60751.941406 53908.019531 29781.345703
60751.070312 53550.937500 29807.798828
60602.539062 53829.214844 30490.537109
60626.597656 54028.261719 30303.945313
60577.613281 53621.792969 30737.740234
60552.183594 53942.582031 30789.767578
60540.230469 53737.878906 31036.712891
14216.408203 37302.097656 44532.144531
14372.371094 37128.429688 44291.750000
60541.175781 53547.117188 31225.324219
60542.281250 53457.992188 31482.753906
60513.261719 53823.773437 31398.875000
60525.761719 53660.003906 31768.511719
60569.675781 53683.484375 32498.386719
60523.097656 54085.542969 32489.074219
60580.144531 53860.953125 32773.488281
60491.046875 53590.695312 44457.695312
60243.007812 53746.152344 44638.363281
60517.132812 53943.996094 44541.156250
60915.835938 53577.101562 34611.074219
60856.238281 53973.472656 34544.597656
60944.871094 53860.429688 34891.765625
60834.578125 53763.054688 44363.148438
61238.300781 53701.101562 44238.097656
61189.992188 53794.625000 35754.898438
26578.035156 77035.757812 40320.421875
61285.992188 53698.261719 36028.984375
61362.718750 53848.179688 36288.589844
61475.394531 53656.019531 36614.894531
61581.109375 53619.867187 36969.800781
61558.968750 53943.386719 36877.878906
61665.585938 53564.546875 37283.609375
61581.312500 53778.609375 44149.414062
61736.484375 53572.945312 44082.890625
61717.898438 53345.214844 44063.218750
61744.679688 53879.250000 37483.531250
61823.679688 53725.441406 37817.218750
61909.468750 53925.667969 38035.820312
61957.542969 53827.363281 38268.421875
62036.523438 53890.476562 38527.863281
26324.912109 76703.976562 40283.117188
62129.773438 54086.031250 38722.605469
62239.558594 53950.156250 39195.804688
62272.390625 53802.339844 39428.617188
62378.625000 53841.332031 39722.574219
62533.160156 53997.500000 40022.597656
62489.683594 54204.386719 39759.910156
62235.058594 53990.437500 43897.984375
61914.914062 53813.933594 44027.472656
62445.589844 53729.171875 40000.351562
62852.675781 53939.093750 40775.867188
62726.207031 53928.312500 40522.324219
62971.152344 53769.363281 43256.371094
62728.195312 53629.750000 43474.210938
62865.398438 53693.296875 40958.683594
63007.210938 53953.183594 41068.277344
63128.335938 54540.222656 40940.843750
62989.949219 54231.910156 40860.410156
63158.906250 54261.867188 41163.562500
62994.167969 53611.675781 41267.269531
63178.558594 53691.761719 41607.781250
63331.144531 53695.613281 42205.468750
63282.085938 53681.777344 42599.218750
63105.343750 53536.003906 42958.363281
48120.898438 44643.968750 58030.863281
47933.042969 44469.679688 58064.468750
47931.460938 44679.292969 58215.183594
59131.148438 53967.808594 45947.675781
59019.980469 54001.671875 46196.273438
58987.195312 54198.152344 46473.339844
58827.703125 53986.003906 46689.277344
58744.289062 53962.371094 46973.343750
58799.679688 54237.832031 47128.019531
58873.691406 54222.875000 46825.507812
58762.484375 54335.203125 49701.238281
58745.300781 54066.781250 50010.992188
59316.585938 54115.003906 45752.898438
59460.265625 53980.589844 45467.093750
59426.589844 53649.171875 45316.199219
59650.101562 53887.105469 45196.550781
59509.300781 54263.253906 45575.968750
59682.882812 54210.878906 45337.496094
59819.093750 53747.199219 44962.519531
60750.320312 54265.531250 29740.294922
60679.187500 54119.679688 30046.945312
60612.867188 54307.933594 30299.568359
60575.488281 54139.140625 30548.205078
60522.148438 54273.660156 30838.097656
60510.199219 54063.464844 31100.279297
60474.964844 54212.539062 31405.439453
60685.179688 53405.242188 33156.421875
60667.421875 54402.468750 33790.589844
60782.117188 53703.269531 33992.304688
60766.250000 54096.195312 34153.613281
60530.097656 54294.410156 44632.242188
60833.500000 53751.593750 34303.996094
60890.000000 54212.671875 34816.292969
60925.792969 54499.023438 35069.929688
60981.718750 54107.277344 35144.761719
61038.812500 54333.605469 35421.109375
61149.324219 54171.210937 35729.906250
61082.234375 53954.375000 35452.671875
51644.257812 81655.625000 56113.468750
61403.894531 54009.378906 44219.453125
61113.375000 54075.910156 44315.359375
61257.933594 54016.410156 36014.957031
61338.230469 54216.992188 36277.429688
61449.156250 54061.718750 36563.746094
61534.902344 54288.933594 36814.425781
61644.414063 53839.335938 37154.972656
61661.031250 54191.183594 37169.917969
61808.226562 54316.214844 37578.500000
61847.285156 54026.648438 37776.859375
61933.593750 54285.886719 37966.480469
61998.105469 54098.062500 38261.925781
26296.998047 76902.367188 40606.894531
61680.000000 54095.152344 44141.710938
61989.656250 54188.953125 44040.199219
62046.531250 54426.039062 38264.863281
62091.746094 54232.394531 38504.753906
62142.730469 54542.027344 38508.695312
62184.796875 54359.480469 38732.660156
62213.871094 54157.246094 38954.964844
62323.863281 54283.066406 39217.898438
62447.558594 54422.718750 39494.500000
62358.210937 54079.953125 39469.980469
62249.648438 54295.175781 43941.441406
62498.101563 53815.570312 43701.664062
62587.847656 54564.109375 39792.085938
62636.386719 54330.468750 40055.816406
62681.035156 54108.507812 40304.023438
62832.074219 54190.554688 40576.703125
63038.105469 54145.656250 43300.503906
62773.023438 53984.050781 43524.871094
62833.582031 54345.726562 43571.355469
62792.808594 54434.464844 40349.937500
62957.851562 54501.367188 40644.308594
63333.003906 54291.000000 41507.089844
63299.875000 54579.300781 41248.070312
63196.441406 53918.269531 42978.078125
63168.382812 53968.781250 41375.937500
63298.109375 53993.425781 41648.308594
63425.050781 54194.886719 41869.945312
63324.734375 53826.753906 41894.277344
63416.593750 53978.835938 42127.605469
63377.304688 54100.371094 42669.093750
63404.218750 53937.171875 42380.695312
59157.230469 54529.328125 46386.269531
59193.859375 54275.191406 46091.199219
59009.875000 54480.847656 46700.171875
58908.339844 54443.042969 46969.714844
59012.503906 54700.121094 46927.378906
58874.449219 54556.511719 47259.894531
58755.839844 54266.421875 47403.175781
58776.089844 54469.925781 47674.324219
58686.003906 54205.601562 47937.707031
58747.277344 54514.105469 48060.890625
58688.925781 54273.238281 48262.796875
58753.851562 54461.023438 49287.562500
58823.339844 54562.605469 50270.910156
58775.328125 54227.753906 50323.855469
58808.726562 54441.406250 50593.859375
58742.875000 54322.304688 51277.144531
59429.652344 54437.570312 45812.558594
59345.125000 54635.093750 46102.445312
59905.589844 54468.660156 45236.660156
60136.917969 54412.664063 44981.871094
60667.410156 54463.929688 30021.214844
60735.457031 54631.984375 29719.392578
60588.558594 54640.410156 30306.921875
60549.164062 54461.812500 30574.808594
60484.367188 54645.835938 30879.769531
60476.582031 54392.441406 31136.509766
60439.843750 54677.972656 31210.181641
60446.488281 54482.222656 31377.228516
60442.144531 54433.328125 31635.453125
60416.183594 54699.238281 31489.625000
60408.582031 54708.281250 31790.773438
60497.500000 54424.078125 32633.398438
60561.222656 54200.613281 32934.988281
60618.738281 54101.812500 33274.082031
60586.800781 54459.660156 33330.429688
60726.929688 54522.476562 34191.664062
60659.164062 54746.609375 33957.496094
60560.902344 54662.144531 44738.652344
60349.640625 54424.675781 44804.093750
60790.171875 54160.886719 44455.101562
60806.976562 54330.601562 34493.812500
60777.191406 54673.792969 34514.816406
60844.667969 54499.847656 34745.636719
61112.636719 54560.679688 35712.312500
61021.757813 54424.613281 44404.734375
61411.929688 54397.382812 44256.187500
51618.027344 81712.945312 55742.105469
60755.992188 54463.246094 44543.621094
60907.664062 54767.617188 44543.503906
61226.953125 54384.632812 36003.398438
61314.621094 54577.750000 36271.996094
61423.210938 54413.195312 36529.093750
61505.472656 54620.089844 36755.085938
61606.628906 54504.027344 37007.175781
61712.539062 54571.765625 37280.242188
61827.218750 54700.093750 37562.945312
61903.863281 54558.792969 37795.429688
61995.980469 54639.917969 38037.660156
61775.320312 54386.738281 44136.894531
62097.562500 54748.460938 38295.453125
62235.316406 54669.460938 38726.968750
62283.753906 54485.078125 38968.324219
62397.011719 54631.167969 39223.585938
62072.531250 54562.742188 44050.597656
62416.929688 54536.984375 43896.562500
62525.929688 54209.156250 43768.191406
62527.035156 54788.718750 39505.632812
62454.457031 54989.675781 39210.402344
62740.621094 54677.644531 40100.601562
62917.410156 54801.296875 40414.035156
62660.253906 54511.324219 43750.511719
62642.496094 54797.003906 43814.070312
63099.371094 54559.902344 43367.156250
63275.839844 54321.394531 43024.859375
63423.871094 54908.644531 41329.410156
63448.957031 54624.347656 41560.152344
63452.656250 54423.785156 41711.843750
63536.343750 54603.492188 41925.429688
63484.156250 54288.140625 42291.351562
24443.826172 75245.570312 43379.097656
24284.353516 74898.257812 43342.097656
63355.507812 54726.621094 43068.039062
63464.765625 54519.882812 42700.933594
59153.859375 55011.191406 46842.167969
59148.804688 54762.820312 46616.957031
59013.898437 54928.835938 47181.707031
58903.261719 54845.847656 47538.535156
59029.937500 55188.515625 47436.730469
58834.093750 54807.804688 47903.968750
58941.847656 55132.812500 47779.812500
58800.042969 54797.687500 48253.308594
58886.578125 55101.894531 48121.445312
58739.320312 54541.726562 48353.675781
58857.136719 55082.527344 48456.695312
58808.082031 54838.175781 49093.589844
58859.082031 55119.855469 48798.976562
58819.808594 54775.410156 49563.632812
58865.992188 55089.382812 49362.730469
58861.156250 54920.277344 49875.238281
58819.535156 54639.406250 49941.234375
58869.511719 54875.042969 50166.957031
58872.789062 54820.753906 50538.906250
58838.496094 54635.804688 50821.019531
58895.417969 54949.648438 50934.304688
58819.621094 54621.390625 51123.769531
58775.335937 54590.398438 51475.375000
58861.183594 54891.609375 51323.687500
58809.019531 54861.144531 51688.859375
59558.066406 54760.402344 45847.546875
59470.585938 54990.312500 46157.851562
59281.523438 54794.500000 46350.796875
59304.976562 55039.445313 46511.015625
59675.566406 54547.621094 45545.375000
59917.035156 54803.917969 45404.554688
59751.335938 54866.941406 45644.019531
60128.550781 54728.667969 45139.035156
59926.578125 55143.675781 45591.000000
60138.480469 55057.210938 45297.125000
60641.890625 54822.777344 30019.445312
60545.046875 55020.609375 30352.701172
60524.031250 54763.125000 30575.529297
60463.527344 55039.171875 30760.125000
60433.089844 54905.832031 31054.134766
60399.945312 54943.871094 31314.144531
60390.406250 55215.476562 31100.580078
60379.324219 54962.640625 31604.828125
60356.953125 55206.558594 31423.863281
60372.125000 55008.933594 31916.523438
60429.890625 55277.320312 32952.347656
60478.484375 54998.414062 33037.863281
60498.273437 55194.695313 33321.824219
60503.562500 54667.156250 32919.910156
60529.890625 54833.367188 33246.640625
60587.296875 54848.894531 33611.390625
60555.378906 55232.312500 33675.890625
60623.984375 55076.332031 33951.105469
60308.406250 54642.578125 44929.425781
60752.617188 55381.097656 34673.214844
60762.167969 55024.398438 34586.382812
60840.968750 54779.015625 34833.839844
60999.582031 54716.000000 35395.152344
61182.250000 54676.625000 44380.554688
61201.542969 54764.277344 36005.738281
61308.902344 54965.652344 36313.296875
61400.367188 54707.925781 36505.414062
61456.496094 54950.957031 36663.839844
61610.558594 54852.613281 37020.261719
24191.732422 74641.625000 43154.582031
24112.125000 74570.046875 43436.285156
61741.835938 54872.750000 37332.851562
61838.429688 55036.632812 37556.175781
61931.355469 54845.781250 37812.617188
62038.148438 54961.332031 38072.605469
61648.085938 55043.312500 44261.519531
61720.578125 54697.308594 44187.394531
61417.980469 54815.796875 44308.187500
62003.191406 54990.742187 44129.914062
62158.070312 55095.144531 38363.289062
62065.488281 55255.031250 38088.476562
62182.769531 54811.441406 38515.523438
62264.335938 54990.105469 38681.652344
62375.304688 55175.687500 38922.140625
62337.339844 54824.914062 38953.339844
62341.593750 54862.144531 43980.871094
62495.976563 55347.273437 39189.906250
62583.636719 55159.386719 39487.949219
62687.253906 54966.437500 39833.164062
62826.339844 54971.519531 40149.414062
62875.199219 54679.250000 43626.480469
62955.949219 55159.117188 40339.089844
62831.437500 55253.453125 40047.718750
63089.906250 54812.011719 40732.468750
63060.582031 55055.101562 40575.343750
24064.716797 74378.460938 43150.699219
62951.277344 55066.625000 43648.371094
63259.464844 54856.570312 41021.921875
63375.125000 55184.269531 41098.980469
63207.101562 55121.507812 40812.066406
