1536
-62.592999 17.820000 10.644000
-62.380001 18.594999 10.541000
-62.766998 17.693001 9.688000
-62.884998 16.878000 10.340000
-62.445999 17.693001 11.631000
-62.206001 18.437000 11.607000
-55.005001 -11.482000 -14.030000
-54.847000 -12.726000 -12.759000
-55.285000 -12.095000 -13.296000
-56.323002 -21.990000 46.407001
-56.967999 -21.309000 46.234001
-57.101002 1.704000 -17.059000
-57.160000 2.689000 -16.759001
-56.646000 2.593000 -17.280001
-56.665001 0.968000 -17.542999
-57.388000 0.899000 -16.986000
-58.040001 1.211000 -16.382999
-57.716999 2.076000 -16.430000
-56.334000 1.965000 -17.601999
-56.955002 3.679000 -16.704000
-56.480999 3.390000 -17.205999
-57.622002 3.025000 -16.233999
-55.901001 3.005000 -17.735001
-57.564999 27.629999 9.453000
-58.068001 26.959999 9.764000
-57.472000 27.339001 10.328000
-56.869999 28.049000 9.989000
-57.553001 27.921000 8.662000
-58.077000 27.236000 8.808000
-56.881001 28.413000 9.065000
-56.873001 27.648001 10.905000
-56.223000 28.273001 10.749000
-56.186001 28.707001 9.869000
-68.271004 -1.162000 28.143000
-67.941002 -0.670000 29.108000
-67.866997 -0.076000 28.516001
-68.648003 -2.256000 27.652000
-68.070000 -1.273000 29.313000
-68.074997 -0.369000 27.634001
-68.516998 -1.345000 27.127001
-67.880997 -1.480000 30.490000
-67.750999 -0.723000 30.028000
-33.536999 -28.975000 32.345001
-33.840000 -29.775999 32.290001
-32.813000 -28.632000 33.011002
-33.181000 -29.299000 32.840000
-33.129002 -28.197001 32.484001
-32.355999 -12.866000 39.612000
-32.647999 -12.129000 40.008999
-32.622002 -12.924000 40.320000
-32.147999 -12.570000 38.868999
-32.344002 -12.066000 39.311001
-32.037998 -13.654000 39.220001
-32.084999 -13.107000 38.950001
-32.224998 -13.694000 39.773998
-32.414001 -13.825000 40.312000
-32.620998 -11.343000 39.764000
-29.921000 6.220000 30.525999
-29.135000 5.590000 29.820999
-28.420000 4.969000 29.146999
-58.724998 24.705999 4.412000
-59.109001 24.695999 5.336000
-58.131001 25.111000 3.840000
-58.737000 25.368999 5.352000
-69.634003 -6.866000 12.006000
-69.667999 -6.422000 12.606000
-69.636002 -5.772000 11.707000
-69.612999 -7.178000 12.876000
-69.580002 -6.611000 11.134000
-69.570000 -7.637000 11.504000
-61.816002 -27.597000 29.134001
-62.113998 -27.445999 28.063999
-62.896000 -26.410999 27.799999
-28.271000 4.094000 28.141001
-28.148001 4.946000 28.473000
-28.482000 4.113000 28.799000
-28.007000 4.122000 27.475000
-27.976000 4.755000 27.846001
-28.649000 3.363000 28.403999
-28.340000 3.370000 27.709999
-68.028999 -1.772000 2.742000
-68.309998 -2.001000 3.542000
-68.045998 -0.995000 3.339000
-67.845001 -2.027000 1.948000
-68.115997 -2.703000 2.535000
-67.767998 -0.984000 2.358000
-33.506001 -23.122000 29.599001
-33.840000 -23.750000 29.299000
-33.230999 -22.346001 29.634001
-33.205002 -21.896999 29.014000
-33.118999 -22.851999 30.341000
-33.106998 -23.351000 30.760000
-33.601002 -23.958000 30.087999
-57.313999 15.219000 30.885000
-57.902000 14.557000 31.313999
-57.147999 14.886000 31.850000
-56.492001 15.400000 31.778000
-56.974998 15.832000 30.155001
-57.664001 15.505000 29.870001
-56.342999 15.967000 30.816999
-58.233002 14.698000 30.527000
-57.756001 14.252000 32.102001
-56.761002 14.671000 32.772999
-39.528000 -32.632999 28.577000
-39.539001 -32.099998 28.051001
-38.780998 -32.002998 28.771000
-40.101002 -33.319000 28.872999
-40.207001 -32.985001 28.297001
-38.786999 -32.630001 29.403000
-39.526001 -33.195999 29.246000
-37.990002 -32.167000 29.789000
-37.837002 -31.546000 29.361000
-38.709999 -31.306999 28.169001
-38.094002 -31.157000 28.766001
-39.358002 -31.537001 27.702000
-40.269001 -32.386002 27.612000
-40.000000 -31.577000 27.148001
-52.872002 -34.290001 26.358999
-52.716000 -33.977001 25.172001
-52.070000 -34.325001 25.396999
-52.770000 -34.396999 27.629999
-53.535999 -34.060001 27.039000
-52.056000 -34.556000 26.278000
-53.445000 -33.935001 25.862000
-52.160999 -34.676998 27.212000
-52.172001 -34.749001 28.475000
-51.422001 -34.868000 26.893000
-56.884998 9.497000 -13.581000
-56.856998 10.482000 -12.783000
-56.511002 10.247000 -13.486000
-56.127998 9.992000 -14.228000
-56.638000 8.951000 -14.405000
-57.230000 8.697000 -13.751000
-57.455002 9.438000 -12.772000
-56.042999 10.939000 -13.485000
-57.334000 10.504000 -12.081000
-56.251999 11.414000 -12.779000
-56.618999 11.698000 -12.031000
-20.695999 14.184000 -5.528000
-20.917999 14.600000 -6.271000
-20.576000 13.441000 -5.168000
-20.781000 13.527000 -5.992000
-20.474001 14.026000 -4.662000
-37.409000 -29.715000 28.350000
-37.609001 -30.462000 28.691999
-52.956001 -28.962000 43.230000
-52.319000 -29.136999 43.655998
-52.973999 -28.422001 43.797001
-53.213001 -29.195000 42.639999
-52.605999 -29.754000 42.646000
-53.783001 -28.362000 43.043999
-52.381001 -28.309999 44.464001
-52.997002 -27.763000 44.466000
-53.647999 -27.920000 43.717999
-52.034000 -29.903999 43.099998
-51.647999 -29.722000 43.644001
-51.797001 -29.041000 44.285999
-66.541000 6.515000 16.825001
-66.327003 7.051000 17.811001
-66.170998 7.354000 16.826000
-66.642998 6.122000 17.695000
-66.917000 5.495000 16.790001
-39.632000 36.590000 6.147000
-40.426998 36.714001 6.055000
-40.603001 36.500000 6.639000
-39.407001 36.914001 5.489000
-40.145000 36.908001 5.449000
-39.491001 36.285000 6.856000
-38.912998 36.408001 6.431000
-40.180000 36.300999 6.894000
-38.749001 36.852001 5.646000
-47.173000 4.774000 -21.476000
-47.012001 3.995000 -21.506001
-47.410000 5.473000 -21.327999
-46.856998 5.474000 -21.540001
-46.504002 4.633000 -21.660999
-30.077999 -14.736000 27.635000
-29.922001 -14.076000 28.488001
-64.779999 9.995000 6.635000
-64.967003 9.437000 7.294000
-64.674004 10.355000 7.548000
-64.592003 10.855000 6.744000
-64.804001 10.183000 5.279000
-65.061996 9.228000 6.351000
-64.656998 10.626000 5.883000
-20.879999 18.409000 -4.462000
-20.878000 19.108000 -3.715000
-20.523001 17.959999 -3.452000
-21.083000 19.330000 -4.567000
-21.033001 18.086000 -5.419000
-21.257999 19.124001 -5.467000
-20.722000 17.580000 -4.512000
-20.643999 18.863001 -2.901000
-20.868999 19.747999 -2.792000
-64.110001 -23.813999 17.825001
-63.526001 -24.646000 18.438000
-64.276001 -23.867001 18.771000
-64.709999 -23.195000 18.367001
-63.348999 -24.427000 17.267000
-65.279999 4.894000 -0.741000
-65.496002 4.822000 0.031000
-65.009003 6.285000 -0.618000
-65.042000 5.645000 -0.940000
-43.173000 16.708000 28.487000
-42.445999 16.252001 28.757999
-42.646000 16.735001 27.957001
-43.217999 16.347000 29.400999
-41.955002 16.549000 27.733000
-42.735001 17.193001 27.266001
-41.992001 15.770000 29.403000
-41.630001 15.981000 28.548000
-42.799999 15.962000 29.931999
-56.528000 20.004999 -5.439000
-56.063999 19.948000 -6.307000
-56.730999 19.364000 -5.692000
-57.162998 19.444000 -4.934000
-56.594002 20.361000 -4.887000
-56.216000 20.695999 -5.595000
-56.305000 20.329000 -6.062000
-57.521000 19.607000 -4.193000
-57.028000 20.233000 -4.163000
-56.157001 21.136999 -4.950000
-56.485001 20.795000 -4.396000
-63.254002 7.365000 -4.996000
-63.231998 6.629000 -5.351000
-63.620998 6.754000 -4.427000
-62.951000 8.126000 -5.225000
-62.842999 7.405000 -5.789000
-63.507000 7.728000 -4.394000
-63.631001 5.865000 -4.715000
-64.015999 6.305000 -3.775000
-63.926998 7.227000 -3.563000
-63.282001 5.766000 -5.591000
-61.386002 -19.193001 42.061001
-60.766998 -19.034000 43.097000
-61.241001 -18.201000 42.923000
-61.745998 -18.049000 42.202999
-61.752998 -19.981001 40.951000
-61.945999 -18.920000 41.358002
-39.480999 10.209000 -22.042000
-39.138000 10.911000 -21.965000
-37.185001 32.775002 9.990000
-36.793999 32.327000 10.598000
-36.513000 32.747002 9.742000
-37.786999 33.258999 9.712000
-37.827999 32.589001 10.444000
-36.952000 33.299999 9.220000
-36.488998 33.623001 8.600000
-37.588001 33.828999 9.061000
-36.158001 33.070999 9.024000
-66.213997 -2.287000 35.853001
-30.780001 -17.528999 39.308998
-31.194000 -16.927999 39.612000
-30.976999 -17.830999 39.926998
-30.843000 -16.889999 38.863998
-30.429001 -18.415001 39.487000
-29.622000 34.254002 -2.490000
-30.297001 34.894001 -2.063000
-29.936001 34.768002 -1.416000
-29.311001 34.324001 -1.546000
-28.986000 33.589001 -3.073000
-28.999001 33.905998 -2.233000
-30.225000 34.535000 -2.818000
-28.660999 33.830002 -1.328000
-29.146000 34.314999 -0.718000
-45.924000 19.862000 -16.920000
-46.766998 19.506001 -16.521000
-63.119999 14.963000 13.860000
-63.429001 14.178000 13.370000
-62.991001 15.442000 13.288000
-63.351002 14.189000 14.333000
-63.709000 13.357000 13.957000
-43.278000 -34.712002 28.070999
-41.882999 -34.716999 29.188999
-42.276001 -34.546001 28.495001
-43.945999 -34.722000 27.594999
-45.327999 -35.307999 28.033001
-22.795000 24.731001 -3.040000
-22.544001 23.988001 -3.871000
-21.392000 21.618999 -1.855000
-59.266998 -30.389000 24.441999
-48.616001 -10.738000 52.983002
-64.193001 11.827000 9.311000
-64.374001 11.192000 9.903000
-64.236000 11.711000 10.534000
-63.992001 12.598000 9.447000
-64.184998 11.961000 8.463000
-64.417999 11.113000 8.518000
-64.510002 10.695000 9.363000
-64.539001 10.805000 10.885000
-64.676003 10.300000 10.248000
-63.592999 13.725000 15.218000
-63.958000 12.838000 15.942000
-64.141998 12.323000 16.999001
-63.300999 14.339000 15.780000
-37.806000 0.714000 47.103001
-38.223999 0.117000 47.202000
-64.711998 -10.892000 -7.250000
-64.095001 -11.258000 -8.123000
-64.488998 -11.614000 -7.059000
-64.711998 -10.389000 -7.825000
-65.093002 -10.679000 -6.527000
-65.144997 -9.939000 -7.083000
-63.914001 -12.263000 -7.556000
-64.002998 -12.655000 -6.790000
-64.648003 -11.859000 -6.354000
-35.299999 -19.566999 51.275002
-36.214001 -20.225000 52.077000
-35.637001 -20.697001 51.804001
-35.660999 -18.826000 51.261002
-36.730000 -19.641001 52.264000
-34.334000 -20.020000 50.657001
-33.948002 -18.955000 50.027000
-37.030998 -20.671000 52.648998
-36.575001 -21.423000 52.553001
-35.308998 -21.326000 51.729000
-62.695000 16.225000 13.512000
-54.570000 30.878000 7.333000
-53.831001 31.416000 7.395000
-54.223999 31.091000 6.687000
-54.306999 30.837000 8.073000
-54.924999 30.608000 6.499000
-55.098000 30.438999 7.419000
-53.528999 31.440001 8.190000
-54.243000 31.202000 5.925000
-54.761002 30.789000 5.816000
-34.005001 -1.834000 42.123001
-33.787998 -1.617000 41.429001
-33.745998 -1.224000 41.873001
-33.981998 -2.151000 41.615002
-34.234001 -2.513000 42.123001
-34.286999 -2.146000 42.689999
-33.972000 -1.377000 42.528999
-65.421997 -3.932000 -7.855000
-65.320000 -3.205000 -7.384000
-65.026001 -3.241000 -8.327000
-65.679001 -3.945000 -6.912000
-65.523003 -4.711000 -8.148000
-65.684998 -4.761000 -7.281000
-65.175003 -4.229000 -8.725000
-34.098000 29.886000 -14.487000
-34.466999 29.466000 -14.754000
-34.669998 30.278999 -14.072000
-33.675999 30.171000 -14.104000
-33.584999 29.459000 -14.813000
-35.175999 29.664000 -14.384000
-34.956001 29.077000 -14.964000
-33.990002 28.898001 -15.199000
-64.862000 9.955000 11.436000
-64.957001 9.659000 10.537000
-65.241997 9.064000 11.343000
-64.800003 10.223000 12.407000
-64.538002 10.902000 11.795000
-65.141998 9.355000 12.246000
-34.490002 -2.781000 42.681999
-34.365002 -1.757000 43.148998
-34.644001 -3.074000 43.118000
-34.422001 -3.196000 42.098000
-34.629002 -3.464000 42.646999
-48.566002 -35.712002 31.356001
-47.699001 -35.929001 31.280001
-48.276001 -35.801998 32.244999
-49.598000 -35.458000 31.246000
-49.494999 -35.548000 30.322001
-48.627998 -35.735001 30.424000
-49.523998 -35.457001 32.084000
-47.546001 -36.007000 32.470001
-48.331001 -35.762001 33.467999
-48.887001 -35.580002 32.752998
-47.933998 -35.882999 30.028999
-47.323002 -35.960999 30.351000
-46.757000 -36.066002 30.944000
-46.900002 -36.081001 31.927999
-38.513000 17.839001 -21.648001
-39.506001 17.607000 -21.615999
-39.486000 18.333000 -21.245001
-37.688000 17.124001 -21.836000
-38.562000 17.084000 -21.813999
-38.179001 18.535999 -21.429001
-37.472000 18.306000 -21.503000
-40.339001 17.408001 -21.511000
-40.766998 17.815001 -21.288000
-38.743999 19.032000 -21.136999
-40.491001 18.415001 -21.075001
-39.800999 19.106001 -20.858000
-60.652000 -24.997000 12.683000
-60.639999 -25.365000 13.546000
-33.091000 15.649000 20.608999
-33.645000 15.453000 21.125000
-33.618000 14.746000 21.695999
-34.306999 15.163000 21.881001
-48.448002 26.697001 18.806000
-49.345001 26.395000 19.139000
-48.676998 25.990999 19.502001
-47.491001 26.485001 18.818001
-47.672001 27.143000 18.289000
-48.612000 27.302999 18.237000
-49.314999 27.002001 18.518999
-47.985001 26.051001 19.318001
-50.007999 25.985001 19.556000
-49.358002 25.639000 19.931999
-47.943001 25.319000 19.993999
-48.576000 -33.452999 23.535999
-47.666000 -33.382999 23.679001
-49.053001 -33.967999 24.223000
-48.116001 -33.027000 22.988001
-49.227001 -32.967999 22.770000
-49.472000 -33.484001 23.527000
-47.264000 -32.909000 23.198000
-46.784000 -33.344002 23.924999
-52.998001 14.168000 -14.349000
-53.519001 14.568000 -13.424000
-52.912998 15.080000 -13.658000
-53.217999 13.063000 -15.155000
-53.730999 12.968000 -14.581000
-53.867001 13.712000 -13.795000
-52.714001 13.633000 -15.213000
-52.250999 14.796000 -14.767000
-54.313999 13.982000 -12.938000
-53.787998 15.113000 -12.666000
-53.157001 15.851000 -12.756000
-33.042999 3.934000 39.615002
-33.636002 4.786000 40.022999
-33.488998 4.047000 40.382000
-33.095001 4.640000 39.141998
-32.429001 3.702000 38.715000
-34.035999 4.955000 40.691002
-33.917000 4.334000 41.074001
-33.551998 3.605000 40.923000
-33.707001 5.391000 39.589001
-34.231998 5.690000 40.250999
-48.057999 -13.061000 53.019001
-48.603001 -13.724000 52.748001
-47.442001 -13.684000 53.174000
-46.520000 -12.969000 53.480000
-47.393002 -12.377000 53.278000
-55.981998 -32.728001 25.540001
-55.049000 -33.234001 25.597000
-55.022999 -33.308998 26.598000
-66.889999 -12.615000 2.225000
-67.217003 -12.316000 2.960000
-67.521004 -11.733000 3.260000
-67.829002 -10.848000 3.594000
-50.166000 -33.418999 39.577000
-49.563000 -33.587002 39.980999
-50.321999 -32.990002 40.312000
-49.693001 -33.865002 39.030998
-50.875000 -32.758999 39.942001
-48.993000 -34.042000 39.598000
-49.105999 -33.645000 40.493999
-49.932999 -33.011002 40.799999
-50.991001 -32.319000 40.818001
-51.134998 14.376000 -16.499001
-51.665001 13.636000 -16.483000
-51.639999 14.576000 -15.716000
-50.382999 15.039000 -16.813000
-50.654999 14.166000 -17.216000
-51.009998 15.291000 -15.846000
-58.785000 -17.299000 -6.859000
-58.903999 -16.143999 -8.170000
-58.513000 -16.767000 -7.647000
-60.514999 -15.408000 -8.129000
-59.493000 -15.591000 -8.535000
-35.993000 -25.306000 26.686001
-35.417999 -25.025000 27.389999
-33.368999 -21.493000 26.077999
-33.384998 -21.419001 25.058001
-32.946999 -20.955999 25.542000
-33.828999 -22.020000 25.875000
-33.242001 -21.438000 27.041000
-32.925999 -20.900999 26.521999
-44.590000 16.672001 30.423000
-43.969002 16.608999 29.757000
-45.474998 17.288000 30.094999
-45.495998 17.972000 28.483000
-45.903999 17.761000 29.503000
-58.443001 2.563000 -15.487000
-58.039001 3.462000 -15.602000
-57.534000 3.989000 -15.990000
-62.787998 -15.753000 -4.860000
-62.403999 -15.582000 -5.840000
-62.012001 -16.339001 -5.332000
-62.872002 -16.038000 -4.124000
-63.562000 -15.116000 -4.060000
-62.174000 -16.608999 -4.640000
-63.382000 -14.984000 -4.805000
-63.053001 -15.038000 -5.526000
-42.139999 17.236000 26.973000
-42.757999 17.794001 26.507000
-43.334000 18.396000 26.041000
-42.632999 18.482000 25.804001
-62.682999 -18.000999 40.696999
-63.356998 -17.514000 39.949001
-63.008999 -18.476000 39.924999
-62.345001 -19.083000 40.577000
-62.266998 -17.867001 41.452000
-63.633999 -18.202000 39.060001
-63.139999 -19.153999 39.209999
-62.632999 -19.488001 39.792000
-31.295000 -2.802000 33.109001
-31.521000 -3.043000 33.730000
-31.628000 -3.077000 34.340000
-40.806999 24.128000 -14.774000
-40.675999 23.759001 -15.537000
-41.422001 23.658001 -14.903000
-40.521000 24.676001 -14.267000
-39.908001 24.862000 -14.654000
-41.306000 24.221001 -14.120000
-40.085999 24.323000 -15.265000
-41.334999 23.174999 -15.805000
-39.764999 24.052000 -16.035999
-41.974998 23.128000 -15.255000
-42.112999 23.503000 -14.486000
-55.123001 23.382000 -3.093000
-55.200001 23.677999 -2.485000
-54.636002 23.843000 -2.931000
-55.404999 23.323999 -3.599000
-55.640999 22.841999 -2.907000
-50.658001 -26.025000 47.455002
-50.127998 -25.357000 48.164001
-51.331001 -25.298000 47.590000
-49.884998 -26.556000 47.536999
-50.793999 -26.849001 46.799000
-51.667000 -26.082001 46.816002
-49.323002 -24.756001 48.911999
-50.655998 -24.524000 48.382999
-49.158001 -25.813999 48.375999
-52.394001 -25.177000 47.019001
-35.178001 12.216000 28.378000
-34.387001 11.746000 27.951000
-35.257000 12.491000 27.627001
-34.633999 11.633000 29.004999
-36.103001 12.905000 28.374001
-35.287998 12.064000 29.184999
-38.952999 35.068001 -4.623000
-40.157001 34.276001 -5.384000
-39.902000 34.848999 -4.547000
-37.997002 34.964001 -4.985000
-38.091999 35.370998 -4.208000
-38.952999 35.320000 -3.938000
-65.343002 -22.861000 21.110001
-65.710999 -22.240000 21.042000
-65.363998 -22.622999 19.948000
-64.911003 -23.364000 20.573000
-64.978996 -23.445999 21.707001
-65.641998 -22.549999 22.073999
-55.985001 18.274000 -7.839000
-56.147999 18.521000 -7.387000
-55.485001 18.959000 -8.071000
-55.636002 18.289000 -8.393000
-56.290001 17.372000 -7.975000
-56.826000 17.358000 -7.292000
-55.452000 19.201000 -7.648000
-33.733002 -3.532000 40.268002
-34.018002 -3.136000 40.959999
-33.988998 -3.802000 40.804001
-33.785999 -2.887000 40.456001
-33.494999 -4.160000 39.673000
-33.616001 -3.238000 39.869999
-33.738998 -4.120000 40.286999
-33.932999 -4.581000 40.729000
-34.169998 -3.786000 41.278000
-67.502998 -6.570000 34.742001
-67.737999 -6.055000 33.938000
-67.124001 -6.131000 35.439999
-66.935997 -6.843000 35.993999
-67.885002 -7.055000 33.875999
-67.516998 -7.459000 34.855000
-61.874001 12.108000 28.226999
-61.874001 11.612000 29.090000
-61.358002 11.643000 30.150000
-62.446999 11.243000 28.271000
-62.410000 10.787000 29.193001
-61.875999 11.069000 30.021999
-62.448002 11.700000 27.454000
-32.419998 1.132000 40.553001
-43.749001 28.235001 16.233999
-43.659000 28.700001 15.718000
-44.534000 28.837999 15.792000
-43.020000 27.584000 16.952999
-28.833000 -33.074001 45.389000
-28.148001 -32.549000 45.289001
-28.888000 -32.509998 45.922001
-28.319000 -33.193001 44.678001
-28.868999 -33.793999 44.160000
-29.771999 -32.689999 46.245998
-31.000999 -33.506001 46.090000
-39.272999 21.934999 -18.903999
-38.890999 22.613001 -18.452000
-38.862000 23.330999 -17.778000
-54.134998 -28.694000 15.395000
-54.863998 -28.788000 15.849000
-53.717999 -28.405001 14.537000
-53.251999 -28.839001 15.330000
-53.173000 -29.170000 16.165001
-54.016998 -29.124001 16.238001
-54.334999 -27.980000 13.729000
-59.606998 -23.754999 40.959000
-59.907001 -24.136999 40.071999
-59.123001 -23.635000 41.800999
-60.337002 -23.066000 40.466000
-58.779999 -23.313000 42.685001
-58.624001 14.044000 31.038000
-18.289000 15.637000 3.422000
-18.179001 14.916000 3.369000
-18.395000 15.189000 2.432000
-18.549000 16.688000 3.334000
-18.386000 16.232000 3.938000
-18.434000 16.039000 2.792000
-18.223000 15.399000 4.158000
-18.332001 14.392000 2.477000
-18.584000 15.698000 1.770000
-18.106001 14.542000 4.051000
-18.152000 14.092000 3.112000
-55.265999 -23.558001 46.247002
-55.662998 -22.656000 46.506001
-54.756001 -22.222000 47.375999
-56.207001 -19.702000 -4.050000
-55.868000 -19.101999 -4.960000
-55.361000 -19.629999 -4.078000
-57.060001 -19.906000 -3.715000
-56.963001 -19.437000 -4.459000
-55.646000 -20.205999 -3.103000
-56.519001 -20.238001 -3.118000
-56.891998 -18.989000 -5.124000
-56.376999 -18.517000 -5.728000
-55.564999 -18.468000 -5.803000
-54.887001 -18.597000 -5.584000
-54.768002 -19.004000 -4.990000
-54.560001 -19.370001 -4.328000
-54.816002 -20.193001 -3.068000
-65.413002 -13.746000 -1.038000
-65.068001 -14.501000 -0.804000
-35.168999 11.506000 30.908001
-35.363998 11.408000 31.767000
-34.691002 11.401000 29.964001
-35.455002 11.962000 30.031000
-34.500999 10.991000 30.886999
-34.598000 10.779000 31.900999
-32.008999 -15.309000 40.206001
-32.104000 -14.604000 39.943001
-31.702000 -15.294000 39.398998
-31.687000 -15.933000 39.784000
-31.947001 -16.014999 40.588001
-40.657001 -31.417000 26.336000
-41.220001 -31.107000 25.565001
-22.089001 14.009000 -9.598000
-50.584000 -28.993999 45.285000
-50.221001 -28.556999 45.861000
-51.178001 -28.091999 45.587002
-49.592999 -29.441999 45.582001
-51.198002 -29.037001 44.796001
-50.748001 -29.670000 44.525002
-50.179001 -29.764999 44.866001
-48.816002 -28.847000 46.532001
-49.641998 -28.433001 46.354000
-48.658001 -30.284000 45.422001
-48.838001 -29.545000 45.960999
-49.542999 -30.225000 44.963001
-21.107000 20.635000 -2.376000
-20.621000 19.587999 -1.724000
-46.942001 34.820999 9.401000
-46.834999 34.540001 10.065000
-46.376999 34.966000 9.353000
-47.547001 34.700001 9.533000
-47.000000 35.099998 8.793000
-35.205002 -11.105000 45.000000
-35.264999 -10.119000 44.854000
-35.576000 -10.592000 45.728001
-35.381001 -11.622000 45.674000
-35.044998 -12.121000 45.120998
-34.834000 -11.574000 44.355999
-34.957001 -10.580000 44.264999
-43.030998 -18.021000 53.674000
-42.931000 -18.844999 53.590000
-44.054001 -17.850000 53.560001
-44.160999 -18.687000 53.419998
-42.004002 -17.518999 53.751999
-42.948002 -17.014999 53.769001
-58.911999 21.495001 18.326000
-59.139000 21.587999 17.604000
-59.467999 20.865000 18.084999
-58.669998 22.221001 17.573000
-58.801998 21.152000 19.061001
-59.178001 20.632000 19.070000
-59.061001 22.056999 16.768000
-59.528999 21.367001 16.969000
-43.964001 -36.853001 37.977001
-43.803001 -36.945999 37.083000
-43.199001 -37.054001 37.330002
-43.236000 -37.020000 38.106998
-43.622002 -36.707001 38.863998
-44.733002 -36.548000 38.098000
-44.501999 -36.765999 37.275002
-44.313000 -36.492001 38.689999
-43.405998 -37.035000 36.377998
-44.242001 -36.870998 36.249001
-42.362000 -37.196999 37.566002
-42.521999 -37.087002 36.848999
-33.262001 -35.862999 37.743000
-34.216000 -36.389000 37.755001
-33.819000 -35.831001 37.094002
-32.584999 -35.819000 38.383999
-33.694000 -36.415001 38.344002
-32.395000 -35.285999 37.672001
-32.992001 -35.327999 37.122002
-34.526001 -36.264999 37.166000
-34.974998 -37.033001 38.348999
-35.037998 -36.784000 37.848999
-39.063000 24.115000 -16.629000
-38.786999 24.698999 -16.118999
-37.919998 24.684999 -16.924999
-38.547001 24.004000 -17.236000
-39.338001 24.846001 -15.319000
-57.536999 -6.734000 49.227001
-58.508999 -6.322000 48.606998
-56.488998 -8.137000 49.755001
-56.660000 -6.840000 49.709000
-44.632999 21.146999 -16.122000
-43.995998 21.655001 -15.743000
-43.640999 21.389999 -16.655001
-45.338001 20.500000 -16.452999
-45.403999 20.945999 -15.575000
-44.428001 20.813000 -16.900000
-44.101002 -6.063000 53.442001
-43.494999 -6.839000 53.508999
-42.985001 -6.112000 53.306999
-43.731998 -5.363000 53.283001
-43.999001 -7.789000 53.667000
-43.057999 -7.546000 53.555000
-42.375999 -6.646000 53.221001
-24.058001 27.327000 -0.214000
-43.271999 -27.759001 50.007000
-42.418999 -27.882999 50.287998
-43.175999 -26.959999 50.563000
-44.105999 -27.406000 49.870998
-43.709999 -28.400999 49.396999
-42.153000 -27.087999 50.909000
-42.716000 -26.372999 51.125000
-43.459000 -25.809999 51.134998
-44.050999 -26.572001 50.419998
-41.481998 -28.297001 50.397999
-41.340000 -27.488001 50.973999
-32.910000 -36.532001 40.590000
-32.750999 -36.348999 41.377998
-33.803001 -36.605999 41.533001
-59.771000 -20.399000 43.695000
-60.224998 -19.009001 43.937000
-31.879999 -18.219000 29.166000
-32.076000 -18.799000 28.639000
-31.632000 -17.993000 28.343000
-31.782000 -18.591999 27.618000
-32.171001 -19.246000 27.961000
-32.306000 -19.438999 28.889000
-60.657001 -14.870000 45.104000
-60.348000 -14.413000 45.653999
-23.912001 26.018999 1.596000
-23.438000 25.114000 1.744000
-23.594999 25.846001 0.942000
-24.367001 26.879000 1.444000
-24.471001 26.532000 2.115000
-24.000000 25.629000 2.278000
-24.007000 26.757000 0.759000
-24.482000 27.533001 0.944000
-47.464001 -28.233000 15.974000
-46.979000 -28.405001 16.646999
-46.262001 -28.256001 16.929001
-45.629002 -27.723000 16.500999
-44.952999 -26.993999 15.609000
-67.503998 2.076000 26.308001
-67.971001 0.892000 26.124001
-67.550003 1.464000 27.267000
-67.251999 2.328000 27.180000
-66.976997 3.092000 26.771999
-67.379997 2.749000 25.368000
-67.724998 1.717000 25.427999
-68.376999 -0.244000 25.834000
-68.278000 -0.290000 26.712000
-68.297997 0.267000 25.028000
-68.036003 0.997000 24.892000
-67.917999 0.576000 27.094999
-67.688004 0.734000 28.056999
-67.337997 1.448000 28.556000
-67.098000 2.201000 28.235001
-69.636002 -4.802000 11.418000
-69.494003 -7.423000 10.501000
-68.125999 -13.003000 32.806999
-68.305000 -13.268000 31.931999
-67.950996 -12.337000 33.430000
-68.509003 -12.117000 32.083000
-67.484001 -12.628000 34.490002
-67.962997 -11.421000 33.801998
-31.518999 -35.785000 42.000999
-32.379002 -35.812000 42.964001
-32.608002 -36.109001 42.172001
-31.753000 -36.019001 41.157001
-30.556000 -35.363998 41.741001
-50.537998 -35.120998 31.318001
-51.050999 -34.879002 31.961000
-51.417000 -34.875999 30.833000
-50.193001 -35.120998 32.456001
-50.450001 -35.275002 30.424000
-48.481998 29.839001 15.833000
-48.584000 29.205999 16.531000
-47.990002 29.422001 16.378000
-49.013000 30.084999 15.397000
-49.123001 29.424999 16.120001
-49.605000 29.695000 15.649000
-49.478001 30.382999 14.867000
-48.634998 30.549999 14.961000
-35.691002 -35.122002 34.792000
-67.040001 -15.561000 7.751000
-47.671001 35.252998 7.080000
-47.790001 35.175999 7.818000
-47.063999 35.338001 7.987000
-63.285000 15.834000 9.036000
-63.375999 15.975000 8.046000
-63.495998 14.903000 8.847000
-63.316002 15.256000 9.715000
-63.035000 16.836000 9.412000
-63.145000 16.629000 8.624000
-63.140999 15.967000 10.126000
-63.032001 17.386999 8.202000
-44.230000 -9.465000 53.813000
-43.418999 -10.306000 53.852001
-43.000000 -9.363000 53.758999
-45.224998 -8.819000 53.712002
-45.766998 -9.547000 53.678001
-44.351002 -10.319000 53.848999
-45.320000 -10.107000 53.752998
-43.341999 -8.585000 53.719002
-44.293999 -8.592000 53.745998
-42.612999 -10.320000 53.770000
-42.073002 -9.417000 53.557999
-42.355000 -8.334000 53.507999
-32.262001 -0.799000 37.144001
-32.549999 -0.853000 37.938999
-32.518002 -1.419000 37.388000
-32.041000 -0.628000 36.483002
-32.076000 -0.079000 37.159000
-32.298000 -0.271000 37.779999
-32.709000 -1.705000 37.932999
-32.687000 -2.256000 37.384998
-32.800999 -0.992000 38.562000
-32.563999 -0.196000 38.528000
-38.964001 -6.628000 50.099998
-38.158001 -7.614000 49.493000
-37.973999 -6.956000 49.035999
-38.365002 -6.112000 49.271999
-39.528999 -5.828000 50.506001
-39.776001 -6.636000 51.080002
-39.091000 -7.389000 50.526001
-40.139999 -5.766000 51.261002
-39.813000 -7.537000 51.437000
-40.407001 -6.722000 51.879002
-35.742001 37.042000 -0.366000
-35.757000 37.289001 0.553000
-37.223000 12.113000 33.171001
-36.469002 11.591000 33.387001
-43.387001 -33.879002 26.639999
-42.709000 -33.984001 27.284000
-43.355999 -34.312000 27.320000
-55.564999 10.123000 -14.879000
-56.018002 9.309000 -14.898000
-66.882004 5.266000 10.426000
-66.995003 5.166000 11.401000
-66.705002 5.793000 10.941000
-30.618999 -32.735001 46.578999
-49.533001 33.217999 11.038000
-48.851002 33.588001 10.902000
-49.386002 33.674999 10.439000
-49.148998 32.962002 11.603000
-50.176998 33.116001 10.589000
-50.088001 32.763000 11.209000
-33.770000 32.869999 7.234000
-34.394001 32.894001 7.629000
-34.516998 32.431999 8.357000
-31.243999 -15.225000 38.088001
-30.997000 -15.260000 37.415001
-31.238001 -14.646000 37.689999
-30.862000 -15.901000 37.768002
-31.172001 -15.743000 38.460999
-31.506001 -14.536000 38.273998
-31.542999 -15.090000 38.796001
-31.544001 -13.944000 37.932999
-31.811001 -13.678000 38.535000
-31.686001 -14.277000 38.734001
-40.512001 33.015999 10.735000
-39.783001 32.990002 10.600000
-40.152000 32.506001 11.220000
-28.136999 -22.056999 38.205002
-27.813000 -21.990999 39.000999
-27.997000 -22.754000 39.216000
-28.041000 -22.124001 39.674000
-31.037001 30.896999 7.309000
-31.198000 30.308001 8.672000
-31.302000 30.811001 7.965000
-31.608999 31.448999 7.289000
-31.711000 30.930000 8.556000
-18.072001 13.774000 3.974000
-18.103001 13.243000 3.039000
-18.145000 14.835000 4.775000
-18.065001 14.044000 4.968000
-36.900002 -23.915001 21.986000
-36.245998 -23.334000 21.709000
-37.793999 -24.492001 21.511999
-37.147999 -23.879000 21.039000
-35.722000 -23.120001 22.632999
-38.049999 -25.139999 22.618999
-41.228001 -3.004000 51.282001
-42.181000 -2.639000 51.840000
-40.271000 -3.291000 50.507999
-40.652000 -3.748000 51.084000
-41.530998 -3.564000 51.821999
-20.541000 12.715000 -5.545000
-20.813999 12.954000 -6.514000
-20.987000 13.767000 -6.745000
-42.883999 17.194000 -20.978001
-42.285999 16.541000 -21.351000
-43.433998 16.461000 -21.105000
-43.872002 17.259001 -20.698000
-41.955002 17.496000 -21.198000
-46.653999 33.423000 -0.323000
-47.198002 32.667000 -0.789000
-47.282001 33.085999 -0.198000
-46.483002 33.962002 0.222000
-45.910999 34.028999 -0.276000
-46.210999 33.467999 -0.712000
-46.695999 32.894001 -0.972000
-47.146000 33.529999 0.340000
-61.424000 -5.751000 45.499001
-61.877998 -5.831000 44.813000
-61.519001 -6.737000 45.383999
-60.993000 -6.372000 46.035000
-60.870998 -5.388000 46.223000
-61.936001 -4.792000 44.743000
-61.299000 -4.924000 45.606998
-61.985001 -7.094000 44.694000
-62.356998 -6.338000 44.130001
-62.393002 -5.308000 43.990002
-61.534000 -7.889000 45.290001
-61.080002 -7.375000 45.959999
-44.507000 -30.856001 22.431999
-44.495998 -30.216999 21.684000
-45.168999 -31.367001 22.507000
-45.123001 -30.684000 21.730000
-44.694000 -31.597000 23.073000
-43.939999 -29.738001 21.556000
-45.063999 -30.075001 21.007000
-63.291000 16.768000 7.397000
-63.008999 17.750000 6.977000
-63.306000 16.971001 6.388000
-63.492001 16.093000 6.567000
-63.542000 15.528000 7.353000
-29.410000 -18.854000 35.789001
-30.044001 -19.987000 35.726002
-30.237000 -19.094999 35.251999
-29.743000 -18.333000 35.352001
-28.792999 -18.223000 35.421001
-28.833000 -18.540001 36.188999
-29.443001 -19.480000 36.040001
-30.337000 -18.323999 34.888000
-30.518000 -19.804001 34.992001
-30.952000 -19.271000 34.356998
-29.274000 -20.480000 36.441002
-29.921000 -20.731001 35.914001
-30.475000 -20.698000 35.237000
-47.112999 10.063000 -20.653999
-47.743000 9.501000 -20.589001
-46.445000 10.137000 -20.924000
-46.563999 9.412000 -20.929001
-46.730000 10.904000 -20.728001
-47.196999 8.997000 -20.826000
-46.417000 11.646000 -20.715000
-45.921001 10.998000 -20.959000
-35.563999 37.361000 1.275000
-63.647999 5.000000 -5.184000
-63.992001 5.208000 -4.175000
-64.348000 1.165000 -5.783000
-64.176003 2.011000 -5.594000
-63.980000 1.745000 -6.389000
-64.574997 0.366000 -6.054000
-64.725998 0.709000 -5.237000
-64.274002 0.783000 -6.574000
-64.573997 1.481000 -4.897000
-43.762001 -31.655001 46.833000
-42.577000 -31.287001 47.637001
-43.137001 -30.813999 47.833000
-42.938000 -32.181000 46.633999
-42.266998 -31.813999 47.285000
-43.995998 -30.915001 47.359001
-41.196999 -31.194000 48.280998
-43.636002 -30.101999 48.186001
-64.556000 11.101000 5.111000
-64.459000 11.420000 6.183000
-64.456001 11.843000 4.386000
-40.521000 -36.681000 35.067001
-40.981998 -36.911999 35.706001
-41.335999 -36.742001 34.896000
-40.223000 -36.374001 34.417999
-39.383999 -36.361000 34.818001
-39.938999 -36.791000 35.629002
-41.021000 -36.398998 33.966999
-40.066002 -36.077000 33.715000
-48.701000 19.813999 27.545000
-49.131001 19.634001 28.122999
-49.007000 19.034000 29.318001
-49.396999 19.379999 28.683001
-67.360001 -13.621000 34.370998
-66.950996 -13.611000 35.384998
-66.943001 -15.576000 34.368999
-66.582001 -14.992000 35.445999
-41.459000 16.775999 27.257999
-40.645000 16.297001 27.486000
-41.237000 16.237000 27.818001
-59.550999 -22.893999 5.653000
-31.482000 -31.309999 47.948002
-32.411999 -31.749001 48.137001
-31.677999 -32.095001 47.570999
-31.561001 -30.676001 48.316002
-30.889000 -31.537001 47.472000
-30.907000 -30.652000 47.880001
-32.361000 -32.535999 47.525002
-31.652000 -33.105000 46.757000
-31.104000 -32.282001 47.124001
-32.993999 -31.382999 48.674999
-33.151001 -32.126999 48.151001
-47.627998 35.271999 6.218000
-48.293999 35.050999 5.830000
-48.164001 35.115002 6.617000
-47.588001 35.252998 5.456000
-46.859001 35.525002 5.689000
-48.778000 34.912998 6.283000
-48.196999 34.928001 5.120000
-49.042000 34.669998 5.468000
-51.028000 7.699000 -19.794001
-50.099998 8.360000 -20.035000
-22.301001 16.288000 -9.890000
-22.687000 16.603001 -10.673000
-22.768000 17.393999 -10.860000
-23.495001 22.264000 5.760000
-23.974001 22.903000 5.507000
-24.205000 22.445999 6.106000
-23.521999 21.660000 6.425000
-22.812000 21.733999 5.933000
-23.408001 22.775999 5.027000
-22.671000 22.132999 5.281000
-24.813999 22.930000 6.131000
-24.889000 22.429001 6.702000
-24.268999 21.952000 6.668000
-24.047001 23.354000 5.016000
-24.614000 23.493000 5.506000
-54.436001 -20.856001 -1.503000
-54.446999 -21.278000 -0.566000
-55.395000 -21.260000 -0.790000
-55.271999 -20.777000 -1.948000
-54.099998 -20.493000 -2.323000
-53.623001 -20.934000 -1.124000
-54.992001 -21.653000 0.147000
-56.078999 -21.722000 0.221000
-56.243000 -21.232000 -1.072000
-61.838001 14.804000 23.465000
-62.383999 13.883000 23.627001
-62.279999 14.466000 22.729000
-27.662001 -8.021000 26.174000
-27.174999 -8.172000 25.542000
-28.072001 -8.121000 26.988001
-57.698002 -24.724001 8.519000
-57.348999 -24.458000 7.627000
-56.908001 -24.863001 8.349000
-57.061001 -25.228001 9.240000
-58.335999 -24.650999 8.923000
-58.104000 -24.261999 7.803000
-37.338001 -28.721001 27.684000
-36.858002 -29.093000 28.535000
-36.835999 -29.903000 29.150999
-62.568001 -0.705000 42.236000
-61.950001 -0.013000 42.868999
-62.548000 -0.009000 41.803001
-63.077999 -1.095000 41.541000
-62.238998 -1.008000 43.019001
-62.751999 -1.455000 42.316002
-61.561001 -0.234000 43.693001
-62.080002 -1.850000 43.639999
-61.771999 -1.079000 43.832001
-62.588001 -2.029000 42.851002
-39.290001 13.606000 31.895000
-40.085999 13.701000 32.513000
-39.351002 13.270000 32.769001
-38.416000 13.240000 31.784000
-38.898998 13.750000 31.094999
-39.529999 14.185000 30.733999
-40.138000 14.150000 31.504000
-38.602001 12.950000 32.730000
-41.951000 33.758999 10.246000
-42.209000 34.235001 9.934000
-42.972000 34.533001 9.873000
-41.999001 34.598000 9.514000
-63.495998 -19.242001 38.509998
-63.431000 -20.011000 38.014000
-57.564999 25.103001 2.919000
-29.631001 27.461000 -14.790000
-30.263000 27.695999 -15.069000
-29.927000 28.171000 -14.237000
-29.292999 27.851000 -14.118000
-28.885000 26.945999 -14.508000
-30.068001 26.833000 -15.663000
-29.372000 26.634001 -15.203000
-63.560001 -6.943000 42.261002
-63.067001 -6.714000 42.994999
-63.558998 -5.930000 42.119999
-64.113998 -6.232000 41.271000
-62.949001 -7.821000 43.202999
-34.726002 37.182999 2.242000
-41.314999 26.075001 -11.681000
-41.348999 25.537001 -12.250000
-41.928001 25.851999 -11.439000
-41.863998 24.905001 -12.460000
-41.584999 26.525999 -10.990000
-40.896999 26.764999 -11.546000
-40.763000 26.132999 -12.221000
-41.243999 25.163000 -12.744000
-40.424000 25.944000 -12.803000
-28.020000 10.605000 22.864000
-29.400000 10.892000 23.514999
-28.450001 10.271000 23.608000
-27.475000 10.736000 22.259001
-26.790001 9.978000 22.694000
-27.339001 9.854000 23.271000
-23.903000 13.774000 13.880000
-23.542000 14.244000 12.958000
-24.322001 14.641000 13.249000
-22.879000 13.409000 13.313000
-23.358999 13.169000 14.085000
-31.684999 -28.438000 34.457001
-31.278000 -27.920000 34.958000
-31.257999 -28.667000 35.123001
-31.968000 -27.830999 33.911999
-31.600000 -27.665001 34.465000
-31.422001 -29.128000 34.967999
-31.976999 -29.073000 34.195000
-32.176998 -28.476000 33.750000
-18.091999 12.412000 3.213000
-18.225000 10.889000 2.360000
-18.138000 11.431000 3.139000
-59.339001 -30.377001 27.729000
-60.141998 -29.601999 28.104000
-60.632000 -29.159000 27.284000
-60.845001 -28.875000 28.247999
-59.479000 -30.218000 28.546000
-59.974998 -29.621000 29.065001
-41.484001 18.204000 -20.938999
-40.914001 18.941000 -20.774000
-41.264000 17.010000 -21.500999
-61.870998 -22.983999 9.614000
-61.157001 -23.540001 9.659000
-61.518002 -23.603001 10.609000
-62.228001 -23.013000 10.464000
-62.831001 -22.437000 10.043000
-65.644997 8.490000 19.858000
-65.723999 8.335000 18.971001
-66.010002 7.546000 19.893000
-65.427002 8.765000 21.076000
-65.352997 9.092000 20.358000
-65.773003 8.028000 20.646000
-65.319000 9.367000 19.462000
-65.942001 7.973000 17.945999
-66.135002 7.348000 18.820999
-52.644001 30.563000 1.584000
-52.570000 29.999001 0.847000
-53.383999 29.858999 1.371000
-53.314999 30.413000 2.068000
-52.953999 30.926001 2.450000
-52.384998 31.155001 2.194000
-51.953999 31.113001 1.670000
-52.014999 30.530001 1.017000
-54.053001 29.774000 1.946000
-53.074001 29.545000 0.764000
-57.858002 18.349001 24.756001
-57.310001 19.209000 24.216999
-58.085999 18.760000 23.864000
-58.508999 17.365000 25.416000
-57.710999 17.922001 25.648001
-57.074001 18.716999 25.176001
-58.018002 17.295000 26.177000
-56.952999 17.919001 26.459999
-56.578999 18.580999 25.920000
-33.346001 -27.681999 32.053001
-30.893000 11.134000 24.355000
-31.381001 10.607000 25.743999
-30.608999 10.557000 24.978001
-31.808001 -29.660000 34.601002
-30.763000 -29.136000 35.973000
-31.190001 -29.591999 35.424000
-32.466000 -29.764999 33.865002
-32.547001 -29.106001 33.507000
-32.223999 -30.222000 34.289001
-31.577000 -30.066000 35.077000
-51.950001 -30.486000 42.403000
-52.672001 -30.239000 41.860001
-52.213001 -30.881001 41.527000
-51.668999 -31.160999 41.807999
-51.257000 -30.976000 42.507000
-51.320000 -30.358000 43.188000
-53.341000 -29.606001 41.917000
-53.588001 -29.969000 41.215000
-52.916000 -30.612000 41.043999
-39.278000 30.900000 -10.112000
-39.030998 31.684000 -9.799000
-39.643002 31.118000 -9.513000
-39.227001 31.937000 -9.182000
-38.534000 32.437000 -9.406000
-39.435001 30.174999 -10.459000
-39.848000 30.385000 -9.814000
-42.778999 21.379999 -17.480000
-43.491001 21.000999 -17.474001
-43.192001 22.059000 -15.864000
-42.842999 21.919001 -16.579000
-45.063000 20.159000 -17.333000
-44.125999 20.497999 -17.740999
-69.820999 -6.118000 17.337999
-69.920998 -6.420000 18.507000
-69.861000 -5.535000 17.908001
-69.740997 -4.932000 16.989000
-69.827003 -6.592000 16.596001
-69.899002 -7.056000 17.540001
-69.781998 -5.613000 16.535000
-67.750000 -7.894000 0.767000
-67.440002 -8.517000 0.134000
-67.542999 -8.775000 0.738000
-67.952003 -7.248000 1.249000
-67.668999 -7.096000 0.216000
-67.519997 -7.660000 -0.278000
-67.824997 -8.368000 1.427000
-50.799999 28.808001 16.089001
-51.014999 29.167000 15.333000
-52.090000 28.813999 14.885000
-51.453999 29.322001 14.682000
-50.668999 29.768000 14.756000
-50.313000 29.407000 15.621000
-49.849998 29.047001 16.325001
-50.946999 28.225000 16.743000
-50.275002 28.461000 16.737000
-33.089001 -15.619000 42.639999
-47.962002 33.688999 11.061000
-47.610001 34.292999 10.322000
-48.312000 33.980000 10.479000
-47.207001 33.478001 11.575000
-47.294998 33.960999 10.859000
-48.537998 33.278999 11.480000
-47.889999 33.217999 11.710000
-48.080002 34.356998 9.848000
-48.827000 34.057999 10.056000
-29.986000 -32.351002 38.196999
-30.601000 -32.692001 37.448002
-29.490000 -31.819000 38.750000
-29.250000 -32.320999 39.278000
-30.304001 -31.690001 37.386002
-29.847000 -31.525999 38.091000
-52.745998 3.316000 -19.683001
-52.214001 4.045000 -19.905001
-51.948002 2.985000 -19.993000
-53.088001 2.438000 -19.481001
-53.514000 3.595000 -19.268999
-52.876999 4.345000 -19.527000
-52.230000 2.255000 -19.834000
-45.424999 24.309999 20.357000
-45.889000 23.719000 21.059000
-69.117996 -12.041000 29.643000
-69.067001 -11.372000 30.150999
-69.310997 -11.903000 28.728001
-69.072998 -12.745000 29.466999
-68.890999 -12.271000 30.556000
-69.505997 -11.250000 28.010000
-68.912003 -10.656000 30.910000
-68.769997 -11.496000 31.228001
-67.315002 -17.921000 15.699000
-66.884003 -18.660999 15.072000
-66.667000 -19.239000 15.488000
-28.160999 30.490999 -8.473000
-40.325001 -36.865002 41.220001
-41.476002 -36.713001 40.941002
-40.199001 -37.151001 40.646999
-56.334999 -9.047000 49.724998
-56.619999 -9.825000 49.553001
-55.530998 -8.680000 50.206001
-55.571999 -9.609000 50.117001
-34.735001 12.928000 25.348000
-34.366001 13.292000 24.184999
-29.990999 -16.525000 22.527000
-30.370001 -17.176001 22.292000
-29.490999 -15.610000 22.371000
-43.834000 16.278999 30.448999
-31.534000 -19.052000 22.389000
-31.087999 -18.400999 22.541000
-31.816000 -19.403000 23.349001
-32.139000 -19.716000 22.493000
-31.344999 -18.799000 23.250000
-30.728001 -17.804001 22.323999
-30.856001 -18.120001 23.426001
-68.638000 0.692000 16.496000
-68.578003 0.874000 17.423000
-68.746002 0.230000 17.226000
-68.616997 0.576000 18.164000
-68.570999 0.936000 15.727000
-68.830002 0.068000 15.952000
-68.928001 -0.269000 16.708000
-22.811001 19.299000 8.304000
-22.368000 18.461000 8.591000
-21.316999 18.209000 8.299000
-23.201000 20.042000 7.962000
-23.031000 20.573000 7.326000
-47.356998 31.555000 13.729000
-47.011002 32.007999 13.158000
-47.723000 32.381001 12.814000
-47.408001 1.524000 -21.165001
-46.942001 2.235000 -21.389000
-48.231998 0.900000 -20.770000
-48.051998 1.870000 -20.964001
-47.547001 2.462000 -21.232000
-34.293999 -30.614000 32.276001
-33.591999 -30.289000 32.783001
-34.610001 -30.294001 31.790001
-34.330002 -31.146999 32.555000
-35.106998 -31.055000 31.746000
-33.709000 -30.933001 32.978001
-33.000000 -29.764000 33.209999
-33.078999 -30.465000 33.450001
-43.664001 36.348000 3.180000
-44.209000 36.161999 3.537000
-43.507999 36.393002 3.849000
-42.805000 36.625999 3.495000
-42.730000 36.580002 2.802000
-43.598999 36.223000 2.631000
-44.616001 35.931000 2.956000
-26.504999 10.400000 21.879999
-32.235001 -7.557000 37.424000
-31.938999 -8.084000 36.848999
-32.092999 -7.142000 36.772999
-32.331001 -6.765000 37.330002
-32.082001 -8.444000 37.480999
-32.488998 -6.936000 37.938000
-32.285000 -7.912000 37.875000
-31.872000 -7.855000 36.301998
-31.877001 -8.924000 36.987999
-31.698999 -8.866000 36.349998
-64.297997 -24.134001 29.430000
-60.606998 6.961000 38.257000
-59.917000 7.139000 39.110001
-59.624001 7.957000 38.590000
-60.492001 7.577000 37.772999
-58.626999 8.685000 39.081001
-59.311001 8.758000 38.051998
-31.455000 33.790001 4.287000
-42.249001 15.186000 31.287001
-41.426998 15.137000 30.405001
-42.237000 15.506000 30.381001
-41.826000 14.710000 31.979000
-41.554001 14.932000 31.107000
-42.900002 15.237000 31.849001
-42.868999 15.559000 31.049000
-53.897999 -19.975000 -3.218000
-53.971001 -19.576000 -3.876000
-51.973000 -30.156000 18.423000
-52.291000 -29.858999 17.771999
-52.939999 -29.747999 17.541000
-26.403999 19.209000 -15.910000
-26.886999 18.826000 -16.410000
-26.620001 19.849001 -16.083000
-25.865000 19.643000 -15.295000
-26.065001 18.639999 -15.566000
-26.353001 17.988001 -15.806000
-27.108000 18.033001 -16.559999
-27.660000 18.777000 -17.150000
-27.308001 19.666000 -16.764999
-27.080999 20.656000 -16.416000
-26.452000 20.590000 -15.790000
-62.722000 11.269000 -3.916000
-62.347000 11.351000 -4.577000
-62.855000 10.549000 -4.163000
-61.865002 11.993000 -4.886000
-61.533001 12.698000 -4.891000
-69.491997 -2.560000 15.047000
-69.500999 -2.617000 14.214000
-69.597000 -3.438000 14.452000
-69.566002 -3.456000 15.211000
-69.504997 -2.989000 15.792000
-69.357002 -2.235000 15.986000
-69.249001 -1.640000 15.539000
-69.330002 -1.857000 14.518000
-69.556000 -3.033000 13.491000
-69.385002 -2.027000 13.360000
-63.185001 -21.877001 9.593000
-63.441002 -21.367001 8.874000
-34.933998 -36.201000 36.787998
-35.091000 -35.811001 36.042000
-37.563000 34.689999 -5.931000
-37.278000 35.000000 -5.256000
-37.327999 35.356998 -4.472000
-38.542999 35.645000 -3.401000
-37.798000 35.681999 -3.528000
-63.604000 15.104000 2.795000
-63.495998 15.735000 3.198000
-63.189999 15.854000 2.030000
-63.820000 14.688000 3.650000
-63.455002 15.018000 1.826000
-63.846001 14.221000 2.791000
-57.500000 14.103000 32.811001
-58.209000 12.946000 33.727001
-57.764999 13.565000 33.337002
-46.525002 2.769000 50.237000
-47.766998 2.665000 49.969002
-47.161999 2.039000 50.462002
-45.771000 3.076000 50.284000
-46.356998 3.805000 49.862999
-45.851002 2.237000 50.547001
-47.026001 3.337000 49.852001
-39.618999 35.376999 -3.719000
-39.162998 35.800999 -2.897000
-63.731998 8.579000 29.304001
-63.234001 9.217000 29.698000
-63.419998 9.446000 28.680000
-63.986000 7.834000 29.811001
-63.425999 8.538000 30.290001
-62.912998 10.004000 29.235001
-62.962002 10.406000 28.346001
-62.903999 9.048000 30.784000
-62.651001 9.737000 30.259001
-28.737000 33.000000 -4.072000
-28.438000 33.498001 -2.220000
-28.365999 33.132999 -3.176000
-27.892000 33.006001 -2.487000
-27.971001 32.577999 -3.773000
-61.810001 2.904000 40.653000
-61.445999 3.811000 40.344002
-67.482002 0.320000 2.471000
-68.040001 0.182000 4.219000
-67.872002 0.045000 3.499000
-36.002998 -35.839001 35.529999
-63.105000 15.369000 0.958000
-63.443001 16.143000 3.999000
-63.719002 15.336000 4.165000
-66.105003 -0.314000 -1.889000
-66.450996 -0.246000 -0.942000
-66.070000 0.434000 -1.602000
-65.653000 0.389000 -2.777000
-65.983002 -0.630000 -2.580000
-66.266998 -1.388000 -2.291000
-66.555000 -1.080000 -1.302000
-65.719002 -0.473000 -3.284000
-66.011002 -1.595000 -3.202000
-42.877998 23.063999 -14.236000
-42.570000 23.566000 -13.925000
-42.721001 22.885000 -14.892000
-43.515999 22.712000 -14.403000
-43.374001 23.208000 -13.790000
-20.971001 21.434999 2.763000
-20.552999 20.891001 2.517000
-21.084000 21.645000 1.804000
-21.479000 22.059000 2.455000
-21.927000 22.450001 3.061000
-61.227001 -13.673000 -9.447000
-61.159000 -14.274000 -8.916000
-61.858002 -13.671000 -8.852000
-62.105000 -13.090000 -9.230000
-61.446999 -12.997000 -9.964000
-60.749001 -13.391000 -10.118000
-60.415001 -14.083000 -9.627000
-61.833000 -14.222000 -8.307000
-61.435001 -14.859000 -7.987000
-60.702000 -14.796000 -8.676000
-62.467999 -13.550000 -8.269000
-33.306999 30.597000 -13.655000
-33.692001 31.143999 -13.112000
-32.867001 30.886000 -13.134000
-32.631001 30.187000 -13.904000
-34.124001 30.773001 -13.670000
-34.562000 31.231001 -13.047000
-33.974998 31.591000 -12.487000
-33.189999 31.417000 -12.474000
-32.462002 31.120001 -12.530000
-32.276001 30.541000 -13.248000
-56.946999 14.026000 33.631001
-56.605999 13.656000 34.833000
-56.265999 14.336000 34.083000
-57.349998 13.423000 34.132000
-56.034000 15.028000 33.084000
-41.169998 0.499000 49.446999
-40.459999 0.464000 48.926998
-42.008999 1.158000 49.605000
-41.394001 0.946000 49.700001
-44.473999 -30.313000 47.653000
-44.724998 -29.576000 48.106998
-37.820999 11.792000 34.689999
-38.590000 12.443000 33.964001
-38.735001 12.118000 34.910999
-37.909000 12.245000 33.696999
-38.320000 11.658000 35.597000
-37.533001 11.314000 35.556999
-37.188000 11.711000 34.118999
-36.806000 11.058000 35.220001
-36.609001 11.278000 34.425999
-48.778000 19.486000 -14.485000
-49.153999 19.997999 -13.860000
-48.612999 20.466000 -14.324000
-48.023998 20.136999 -14.540000
-49.242001 18.827000 -14.694000
-49.728001 19.243999 -13.909000
-47.963001 19.478001 -15.233000
-48.533001 18.759001 -15.469000
-49.949001 19.742001 -13.949000
-48.008999 20.893999 -14.374000
-47.250000 21.016001 -14.473000
-47.158001 20.327999 -14.993000
-54.134998 -18.454000 49.208000
-53.417999 -17.452000 49.873001
-53.201000 -18.497000 49.687000
-54.330002 -19.400000 48.777000
-53.359001 -19.504999 49.252998
-56.167000 -19.062000 47.863998
-55.358002 -19.236000 48.303001
-60.354000 5.781000 39.987000
-52.951000 -28.183001 13.951000
-53.747002 -28.028000 13.675000
-53.209000 -27.809999 13.170000
-52.263000 -27.902000 13.438000
-52.784000 -28.573000 14.695000
-52.433998 -28.924000 15.467000
-39.477001 33.667000 -6.774000
-38.733002 33.722000 -7.189000
-40.192001 33.294998 -6.718000
-39.189999 33.325001 -7.482000
-39.820999 32.966000 -7.431000
-38.051998 33.867001 -7.472000
-38.498001 33.416000 -7.909000
-64.555000 -4.101000 39.973999
