1230
55424.507812 59896.828125 33795.472656
55374.828125 60015.382812 33475.242188
55192.238281 59832.968750 33526.000000
55591.246094 60154.582031 33572.121094
55737.003906 60123.242188 33903.250000
55956.437500 60162.097656 34248.425781
55621.683594 59878.734375 34196.566406
55835.679688 59892.242188 34578.710938
56137.886719 59830.527344 35302.015625
56317.250000 59888.726563 35545.664062
56522.718750 59943.539062 35864.679688
58301.074219 88676.984375 36065.207031
58159.148438 88760.320312 36331.269531
57126.750000 59933.289062 37320.320312
57227.097656 59910.781250 37607.843750
57336.046875 60126.132812 37374.148438
57602.820312 60122.988281 38000.593750
57693.628906 60325.949219 37771.914062
57465.546875 60121.078125 37690.484375
57651.648438 59580.875000 39300.101562
57742.312500 59787.949219 39028.398438
57682.050781 59949.144531 38545.402344
57638.003906 59798.546875 38771.867188
57818.664062 59967.988281 38803.933594
58242.007812 59944.648437 52821.976562
58126.218750 59754.398438 52491.785156
57976.179687 59652.421875 52790.906250
58030.566406 59839.476562 53411.347656
58055.058594 59792.449219 53062.332031
58129.867188 60088.394531 54032.425781
58150.386719 60035.722656 53692.832031
57939.191406 59822.875000 53829.199219
57763.070312 59572.562500 53586.121094
57710.339844 59647.593750 54378.671875
57835.417969 59845.687500 54629.683594
57893.957031 59847.843750 54227.531250
57867.574219 59988.914062 55255.296875
57820.773438 59971.699219 55623.960938
57818.996094 60010.101562 55983.167969
57970.687500 60173.859375 55494.468750
57977.746094 60226.042969 55773.312500
57982.542969 60278.929688 56099.843750
58168.917969 88844.328125 37146.246094
58085.339844 88841.937500 36841.281250
57902.496094 60201.820312 56616.398438
57850.488281 60094.699219 56329.335938
57652.570312 59779.195312 56906.988281
57737.375000 59920.671875 57249.386719
57810.203125 60034.550781 57575.972656
57852.582031 59904.160156 58718.238281
57767.964844 59681.894531 58876.007812
58293.277344 88826.226562 37397.019531
58232.718750 59866.785156 40008.765625
58251.863281 59765.410156 40315.625000
58519.136719 59926.261719 40588.312500
58264.859375 59645.457031 40668.488281
58483.832031 59753.992188 40960.082031
58213.007812 59463.691406 41038.792969
58798.257812 60135.355469 47616.339844
58705.121094 59936.601563 47349.421875
58588.511719 59862.437500 47681.011719
58701.175781 60088.015625 47992.062500
58462.011719 59761.847656 48013.437500
58179.339844 59490.667969 48814.562500
58290.304688 59662.902344 49050.714844
58539.378906 60027.425781 49326.855469
58328.339844 59733.832031 49364.648438
58463.527344 59929.515625 49595.863281
58306.050781 59717.011719 49728.339844
58480.687500 59960.507812 49907.238281
58292.761719 59710.664062 50077.015625
58465.613281 59946.476563 50271.402344
58106.421875 59495.375000 50570.867188
58277.988281 59703.500000 50419.675781
58432.847656 59912.382813 50650.425781
58244.300781 59673.230469 50690.539062
58287.722656 59742.910156 50940.437500
58114.378906 59558.683594 51210.753906
57960.945312 59360.695312 51033.449219
57864.046875 59285.476562 51333.308594
58445.179688 59981.316406 51573.785156
58206.773438 59700.257812 51542.789062
58280.105469 59829.847656 51916.128906
58365.144531 60007.625000 52458.148437
58721.007812 59997.156250 40937.335938
58729.382812 59808.742188 41523.187500
58911.566406 60071.402344 41278.156250
58981.886719 60011.699219 41705.078125
58772.660156 59735.343750 41928.781250
58823.441406 59674.484375 42380.839844
58513.996094 59414.265625 42151.078125
58964.070312 59752.074219 42713.980469
58930.906250 59730.593750 45551.832031
58954.773438 59692.511719 45193.988281
58745.968750 59492.394531 45467.316406
59036.054687 59928.683594 45834.414062
59135.957031 59957.410156 45429.218750
58869.328125 59788.964844 46106.257812
58972.828125 60040.800781 46514.546875
59018.062500 60011.468750 46221.195312
58833.769531 59826.929688 46401.742188
58511.796875 59890.179687 48350.671875
58416.968750 59813.320312 48766.792969
58436.109375 59869.011719 49094.566406
59103.812500 59943.093750 42498.140625
59189.480469 59967.820312 42884.046875
59154.011719 59878.003906 43282.152344
59145.175781 59838.523438 43672.792969
59366.523437 60102.292969 43502.679688
59362.085938 60083.824219 43905.453125
59133.527344 59814.562500 44072.859375
59331.609375 60053.687500 44310.578125
59106.648437 59792.714844 44459.824219
59283.066406 60021.656250 44694.066406
59057.074219 59762.761719 44821.980469
59211.773438 59981.648437 45060.480469
55708.550781 60369.695313 33347.562500
55451.542969 60193.542969 33262.042969
56089.269531 60517.632813 33753.546875
55846.171875 60337.625000 33661.664062
55973.171875 60324.250000 33935.789062
55965.242187 60549.773438 33443.441406
56221.574219 60489.308594 34089.164062
56509.414062 60527.769531 34608.910156
56254.773438 60331.824219 34492.117188
56428.980469 60331.792969 34846.371094
56475.449219 60774.574219 34013.496094
56478.773438 60629.628906 34333.527344
56671.949219 60582.226562 34835.472656
56667.324219 60403.117188 35190.449219
56579.089844 60147.851562 35536.343750
56332.980469 60075.949219 35179.910156
56729.816406 60009.207031 36184.132812
56776.371094 60194.132813 35862.910156
57172.218750 60533.656250 36034.402344
56977.250000 60400.628906 35861.515625
56975.406250 60275.316406 36142.472656
56943.746094 59834.640625 37118.566406
57180.179688 60110.031250 37035.988281
56938.742188 59963.101562 36797.121094
57344.253906 60379.597656 36811.957031
57451.988281 60348.906250 37147.910156
57823.285156 60331.261719 38053.976562
57928.875000 59972.492187 39038.824219
58021.679688 60150.953125 38861.808594
25557.576172 64940.421875 45419.273438
25544.492188 64612.410156 45445.921875
58143.136719 60427.652344 55533.351562
63770.863281 79106.460938 50363.320312
63739.746094 79026.054688 50680.007812
63668.449219 79340.117188 50583.375000
57966.843750 60311.664062 57668.613281
57862.535156 60098.898438 57890.492188
58015.488281 60366.679688 58009.378906
57907.781250 60132.601562 58216.421875
57968.457031 60349.121094 38335.929688
57893.093750 60152.429688 38578.597656
58111.972656 60355.222656 38633.296875
58375.519531 60099.636719 39792.703125
58092.597656 59846.171875 39715.261719
58430.203125 60209.378906 53098.550781
58518.847656 60226.878906 52707.082031
58468.917969 60328.000000 53422.183594
58277.097656 60114.843750 53424.640625
58643.179688 60478.875000 53229.308594
58627.195312 60551.160156 53583.238281
58330.988281 60368.796875 54206.824219
58369.066406 60302.875000 53769.691406
58495.031250 60625.308594 54410.847656
58301.054688 60415.648438 54534.492187
58412.531250 60624.800781 54788.492188
58332.617188 60415.968750 59976.507812
58227.140625 60195.351562 59938.843750
58333.238281 60272.593750 60251.074219
58730.320312 60652.074219 39341.347656
58677.511719 60420.195313 39752.988281
58894.562500 60672.671875 39661.578125
58600.328125 60219.320312 40050.175781
58443.792969 60006.605469 40188.320312
58687.730469 60180.257812 40366.101562
58921.000000 60591.378906 39918.859375
58826.421875 60408.476563 40140.796875
57618.335938 88856.914062 35376.300781
59120.000000 60317.960938 41169.890625
58948.496094 60232.882812 40916.968750
59074.062500 60372.875000 47124.250000
59020.906250 60186.828125 46771.445312
58853.066406 60052.152344 47058.496094
58886.828125 60181.246094 47337.765625
59002.117188 60392.414062 47519.621094
54937.664063 63821.070312 22526.798828
59075.113281 60662.214844 48190.066406
58910.035156 60408.605469 48107.808594
58944.093750 60522.035156 48446.765625
58741.382812 60218.523438 48371.648438
58785.347656 60331.976562 48707.800781
58658.867188 60207.382812 49658.066406
58683.828125 60245.722656 50115.136719
58609.832031 60143.449219 50459.023438
58469.164062 59970.546875 50974.570312
58606.132813 60155.703125 51237.925781
58665.480469 60221.644531 50798.796875
58901.839844 60540.433594 50739.226562
58840.671875 60453.667969 51073.828125
58572.484375 60164.535156 51911.382813
58819.632812 60430.355469 51418.207031
58650.566406 60227.281250 51580.753906
58806.386719 60431.554688 51759.089844
58419.765625 60020.132812 52170.050781
58616.695312 60269.371094 52314.769531
59028.195312 60762.832031 52372.070312
58845.437500 60531.332031 52273.281250
58795.406250 60527.382812 52618.179688
59529.242187 60915.792969 40634.300781
59263.386719 60666.503906 40591.640625
59425.878906 60712.359375 40919.203125
59176.617188 60272.445312 41498.511719
59364.484375 60538.476562 41262.261719
59426.582031 60478.441406 41688.203125
59232.992188 60219.710938 41895.937500
59280.230469 60177.152344 42280.921875
59036.742188 59959.109375 42114.851562
59314.554688 60149.726562 42605.042969
59485.316406 60299.472656 42880.714844
59500.242188 60379.191406 42472.250000
59352.488281 60112.582031 43165.085938
59555.808594 60338.429688 43290.230469
59366.089844 60215.109375 45283.445312
59443.207031 60250.777344 44934.031250
59292.910156 60210.691406 45656.679688
59449.457031 60487.625000 45897.003906
59219.531250 60219.093750 46032.953125
59443.308594 60627.292969 46348.667969
59176.812500 60278.421875 46406.613281
59611.394531 60387.949219 43722.152344
59512.753906 60294.800781 44560.765625
59556.609375 60323.300781 44160.054688
56089.097656 60770.394531 33216.738281
56382.722656 61007.878906 33295.136719
56214.347656 60734.246094 33540.289062
56447.796875 60893.917969 33686.945312
56890.296875 60980.335938 34499.527344
56691.402344 60888.957031 34246.242188
56689.917969 60741.464844 34550.992188
56844.636719 60396.136719 35578.031250
56957.140625 60634.886719 35335.917969
57051.593750 60868.804688 35079.179688
57238.222656 60891.500000 35452.875000
56873.804688 60816.441406 34794.406250
56845.222656 60659.824219 35043.949219
57418.371094 60720.613281 36232.019531
57215.789063 60406.964844 36430.421875
57498.335938 60639.078125 36608.871094
57585.410156 60583.777344 36945.949219
57813.335938 60785.074219 37062.824219
57695.707031 60561.000000 37265.671875
57938.167969 60769.800781 37393.289062
58034.519531 60543.015625 38082.933594
58067.281250 60731.089844 37770.437500
58260.519531 60767.710938 38119.914062
58339.949219 60563.214844 38695.664062
58657.769531 61065.230469 55155.156250
58595.714844 60900.589844 54895.113281
58452.933594 60775.476562 55138.339844
58328.246094 60665.707031 55399.851562
58497.453125 60923.984375 55456.019531
58226.792969 60462.359375 55137.804688
58512.769531 61034.382812 55791.148438
58320.773438 60731.687500 55741.199219
58389.195312 60894.515625 56010.367188
58248.339844 60691.031250 56102.585938
58108.933594 60488.023438 56191.218750
58176.347656 60625.535156 56431.460938
58371.878906 60927.222656 56336.433594
58011.484375 60360.988281 56411.917969
58056.398438 60465.335938 56792.109375
58272.394531 60819.613281 56744.863281
58173.355469 60673.289062 56960.902344
58278.519531 60861.875000 57131.703125
58095.187500 60548.738281 57166.554688
58063.289062 60493.343750 57470.574219
58282.929687 60866.421875 57965.882812
41915.699219 73446.679688 18511.197266
58059.296875 60395.289062 58361.648438
58210.304688 60659.652344 58518.406250
58171.796875 60640.074219 58157.109375
58347.941406 60904.488281 58685.566406
58250.140625 60665.347656 58862.734375
58383.828125 60908.691406 59004.464844
58104.562500 60407.734375 58713.105469
58159.269531 60423.566406 59050.871094
58299.511719 60675.125000 59187.503906
58433.328125 60924.269531 59317.828125
58218.117188 60437.117187 59364.144531
58261.671875 60393.429688 59691.617188
58354.261719 60677.152344 59512.265625
58618.660156 60996.902344 60214.214844
58561.937500 60975.003906 59959.460938
58518.855469 60768.457031 60168.511719
58420.101562 60674.820312 59868.437500
58737.214844 60310.550781 49288.261719
58617.820312 60117.882812 48972.367188
58859.968750 60499.609375 49851.281250
58991.777344 60650.839844 51271.207031
58992.871094 60680.648438 51997.761719
59017.378906 60689.019531 51587.691406
59261.707031 61110.109375 52831.738281
59266.210938 61056.960938 52458.914062
59046.148438 60839.292969 52727.464844
57727.578125 88846.429688 35641.210938
58846.226562 60741.632812 53342.250000
58841.066406 60652.425781 52990.589844
58841.460938 60837.382813 53709.707031
58599.382813 60638.000000 54010.097656
58849.328125 60956.585937 54065.207031
59055.988281 61240.175781 54158.500000
58848.527344 61068.402344 54403.906250
59043.781250 60904.800781 39462.144531
59100.554688 60802.222656 39832.324219
59325.562500 60932.257812 40052.914062
59109.316406 60661.804688 40204.468750
59354.132812 60844.105469 40353.210938
59431.214844 60857.824219 47063.804688
59418.417969 60734.222656 46764.460938
59279.785156 60624.574219 47018.992188
59483.562500 61033.851562 47351.953125
59246.625000 60694.117188 47376.687500
59354.921875 60950.746094 47710.390625
59105.757812 60621.691406 47830.289062
59254.683594 60898.996094 48084.578125
58996.968750 60652.503906 48825.289062
58816.394531 60408.558594 49006.449219
59358.894531 61162.238281 48640.546875
59194.730469 60943.335938 48818.972656
59326.863281 61166.550781 49071.238281
59126.421875 60869.105469 49070.582031
59012.460938 60723.105469 49624.722656
59052.519531 60779.089844 49980.613281
58789.996094 60391.289063 50463.562500
58906.957031 60562.144531 50200.730469
59053.050781 60739.097656 50982.089844
59087.316406 60817.375000 50320.988281
58957.863281 60626.218750 50474.109375
59090.093750 60805.195312 50646.394531
59627.988281 60904.242187 40960.679688
59622.187500 60736.792969 41495.773438
59824.785156 61019.785156 41259.257812
59853.960938 60931.148438 41704.515625
59667.019531 60682.402344 41894.171875
59702.039062 60637.574219 42289.996094
59472.625000 60427.566406 42087.644531
59720.148437 60594.984375 42684.382812
59737.496094 60571.992187 43075.054688
59937.441406 60804.898438 43296.996094
59753.363281 60569.050781 43421.902344
59894.191406 60746.457031 43741.710938
59749.707031 60563.273438 44047.250000
59922.226562 60803.589844 44195.093750
59729.914062 60561.253906 44405.074219
59907.742188 60829.199219 44600.839844
59687.324219 60560.242188 44842.765625
59895.144531 60881.121094 44990.128906
59713.949219 60675.796875 45244.277344
59900.929688 60992.746094 45395.828125
59554.148438 60432.792969 45154.238281
59517.417969 60459.207031 45473.757812
59678.273438 60728.035156 45628.667969
59813.843750 60986.886719 45810.718750
59627.234375 60765.406250 45981.835938
59724.093750 61003.500000 46242.222656
59733.968750 61178.105469 46671.535156
59574.199219 60894.347656 46571.183594
59552.800781 60952.640625 46823.085938
56981.980469 61551.394531 33398.109375
45191.121094 81440.320312 14326.814453
56831.660156 61306.785156 33628.261719
56610.378906 61118.187500 33545.277344
56697.175781 61055.941406 33891.007812
56898.351562 61133.972656 34191.238281
57290.761719 61478.671875 34381.640625
57094.386719 61368.593750 34138.539062
57092.796875 61226.875000 34449.121094
57085.878906 61063.601562 34770.164062
57295.480469 61331.429688 34711.863281
57311.652344 61163.773438 35088.433594
57478.277344 61180.945312 35443.093750
57703.214844 60792.078125 36779.179688
57902.976562 61001.386719 36824.277344
57706.859375 60953.917969 36449.359375
57649.343750 61234.378906 35747.878906
57452.484375 61016.996094 35700.046875
57568.667969 60999.625000 36016.480469
57992.078125 61241.933594 36556.800781
58144.496094 61236.371094 36925.687500
58187.277344 60990.558594 37514.414062
58285.148438 61222.726562 37276.796875
58431.300781 61216.914062 37614.625000
58418.550781 60773.554687 38440.617188
58499.390625 60989.156250 38191.015625
58590.691406 61284.792969 56351.871094
58502.148438 61088.160156 56085.960938
58584.597656 61350.121094 56754.867188
58444.902344 61094.191406 56624.019531
58424.902344 61099.621094 56925.660156
58559.699219 61353.207031 57093.664062
58429.066406 61131.140625 57201.667969
58497.109375 61273.285156 57668.222656
58368.898438 61034.464844 57473.597656
58386.164062 61065.710938 57801.085938
44540.328125 81625.765625 13191.073242
44351.914062 81536.539062 13226.555664
58502.570312 61264.980469 58279.304687
58445.644531 61123.652344 58556.199219
58335.824219 60934.875000 58320.097656
58471.500000 61131.929688 58831.031250
58583.480469 61212.589844 37944.816406
58736.128906 61201.863281 38268.085938
58786.207031 60960.425781 38815.992188
59041.515625 61475.437500 54843.281250
59041.875000 61349.847656 54509.093750
58814.156250 61157.566406 54791.152344
63637.453125 79722.039062 50137.769531
63595.640625 79665.867188 50476.628906
63517.402344 80024.460938 50348.292969
58717.472656 61261.617188 55519.691406
58663.136719 61302.265625 55942.531250
63701.433594 79421.898438 50256.718750
63804.437500 79191.476562 50008.609375
58508.894531 61146.414062 59124.410156
58567.062500 61187.230469 59430.332031
58885.734375 61181.960938 38589.195312
59022.421875 61147.062500 38914.574219
59301.523438 61053.449219 39701.031250
59405.433594 61307.835938 49903.546875
59368.292969 61253.464844 49505.031250
59206.414063 61010.750000 49755.257812
59242.148438 61052.804688 50126.175781
59435.808594 61331.257812 50293.988281
59263.507812 61061.800781 50491.226562
59259.101562 61029.445312 50864.949219
59454.664062 61286.976562 51082.937500
59452.375000 61320.671875 50683.003906
59217.937500 60951.925781 51295.425781
59257.109375 60998.972656 51783.062500
59390.542969 61177.027344 52121.171875
59192.886719 60936.105469 52147.140625
59474.367188 61300.390625 52382.539062
59425.824219 61270.414062 52632.515625
59515.988281 61629.128906 53663.703125
59489.097656 61480.996094 53269.410156
59283.535156 61311.300781 53543.367187
59522.890625 61351.890625 39534.296875
59539.335938 61187.140625 39949.031250
59536.832031 61049.734375 40288.488281
59712.070312 61144.812500 40512.757812
59780.621094 61108.972656 40825.066406
59938.488281 61243.171875 45982.585938
59982.585938 61201.113281 45662.660156
59573.714844 61258.753906 47628.957031
59613.246094 61122.300781 47034.906250
59464.808594 61191.066406 47993.933594
59361.937500 61107.164062 48307.335938
59961.992188 61384.996094 40584.753906
60032.488281 61318.875000 41011.976562
60079.566406 61270.875000 41346.683594
60275.933594 61521.105469 41246.738281
60017.742188 61142.613281 41573.847656
60246.609375 61384.406250 41660.003906
60073.675781 61131.031250 41910.214844
59894.269531 60889.328125 42101.660156
60111.179688 61105.246094 42311.839844
60137.808594 61066.324219 43118.000000
60131.781250 61082.972656 42714.589844
59937.597656 60829.164062 42896.941406
60128.132812 61051.925781 43534.781250
60324.019531 61332.398438 43741.847656
60116.851563 61057.734375 43964.667969
60307.695313 61355.582031 44164.636719
60103.191406 61081.593750 44382.355469
60270.734375 61368.089844 44575.187500
60076.718750 61106.437500 44768.148438
60216.726562 61370.812500 44960.984375
60131.644531 61351.890625 45374.492188
60048.203125 61136.890625 45094.886719
60107.601562 61444.269531 45773.894531
57128.878906 61766.058594 33216.484375
57097.289062 61513.613281 33795.148438
57269.015625 61578.636719 34090.433594
57364.074219 61765.015625 33873.718750
57498.476562 61761.644531 34264.910156
57489.617188 61596.406250 34629.617188
57500.285156 61461.062500 34945.429688
57537.394531 61369.222656 35219.183594
57715.335938 61623.218750 35160.113281
57685.570312 61429.734375 35461.851562
57875.457031 61678.953125 35459.085938
58085.585938 61471.304688 36343.218750
57848.023438 61287.355469 36127.476562
58264.902344 61905.527344 35998.269531
58063.453125 61610.996094 36040.300781
58265.406250 61712.328125 36330.574219
58254.660156 61505.343750 36672.984375
58458.816406 61645.234375 36881.507812
58374.390625 61448.558594 37048.824219
58581.460938 61649.292969 37145.351562
58513.160156 61439.335938 37375.785156
59057.449219 61650.664063 38091.976562
58899.066406 61668.390625 37766.753906
58820.023438 61431.554688 38021.535156
58965.464844 61575.914062 55402.152344
58874.402344 61358.597656 55135.949219
57547.765625 88928.093750 35832.226562
58810.496094 61582.937500 56145.160156
57436.816406 88935.625000 35558.332031
58877.222656 61859.542969 56844.718750
58723.464844 61620.210938 56957.937500
58861.464844 61884.480469 57143.390625
58602.277344 61473.105469 57820.707031
58605.015625 61471.601562 57575.726562
58689.199219 61606.671875 57331.250000
58713.742188 61676.781250 57669.007812
58848.304688 61905.558594 57485.300781
58497.019531 61271.132812 57952.718750
58595.421875 61457.488281 58072.949219
58705.492188 61669.707031 57976.789062
58698.007812 61589.105469 58928.296875
58575.984375 61328.988281 58948.570312
58635.390625 61401.261719 59203.046875
58977.199219 61415.085938 38344.324219
59220.566406 61635.769531 38408.277344
59108.359375 61091.367188 39194.238281
59305.941406 61344.617188 39091.203125
59259.652344 61147.820313 39393.105469
59434.593750 61787.656250 54377.339844
59458.636719 61690.445312 54047.304688
59251.972656 61519.640625 54266.339844
57548.402344 88958.609375 36121.652344
59060.640625 61601.882812 55111.789062
59443.281250 61668.632813 38758.121094
59624.554687 61629.964844 39182.304688
59781.152344 61460.550781 39893.773438
60035.851562 61740.742187 39883.890625
59826.535156 61662.597656 39552.515625
59754.781250 61292.183594 40238.789062
59842.816406 61566.906250 47246.105469
59978.890625 61714.492188 47023.437500
59800.667969 61406.210938 46994.417969
59676.835938 61501.000000 47902.542969
59773.195312 61549.562500 47535.097656
59879.835938 61803.617188 47770.289062
59973.332031 61838.371094 47386.777344
59798.859375 61775.753906 48166.761719
59562.875000 61424.214844 48344.144531
59737.433594 61761.644531 48590.718750
59539.804688 61468.531250 48818.042969
59715.527344 61783.238281 49009.023438
59540.460937 61512.085938 49246.230469
59725.066406 61825.644531 49403.011719
59572.710938 61575.765625 49658.023438
59791.664062 61937.652344 49808.574219
59611.062500 61621.214844 50070.792969
59827.394531 61958.175781 50277.421875
59634.246094 61618.507812 50480.093750
59820.824219 61889.046875 50681.839844
59647.460938 61589.117188 50878.679688
59840.011719 61860.402344 51072.914062
59658.722656 61559.546875 51281.062500
59853.449219 61829.574219 51483.527344
59462.281250 61269.273438 51493.781250
59662.671875 61534.953125 51686.363281
59856.281250 61806.242188 51910.203125
59486.367188 61290.683594 51839.703125
59627.265625 61485.628906 52122.667969
59856.371094 61810.804688 52346.179688
59629.765625 61524.988281 52588.261719
59857.777344 61847.519531 52749.941406
63632.386719 79311.773438 32858.835938
63659.269531 79090.273438 33068.542969
63677.609375 79463.984375 33150.484375
59671.355469 61642.382812 52990.855469
59868.808594 61921.902344 53098.562500
59698.589844 61759.355469 53341.394531
59994.941406 61559.050781 40211.750000
60272.343750 62016.511719 39868.488281
60241.488281 61841.636719 40193.015625
60186.476562 61670.277344 40473.023438
60277.292969 61649.183594 40830.273438
60409.898438 61637.917969 44790.914062
60349.898438 61649.339844 45177.066406
60497.312500 61960.214844 45378.667969
60537.183594 61900.164063 44989.402344
60292.652344 61688.027344 45584.902344
60434.945312 62022.929688 45842.210938
59954.101562 61542.460938 46686.050781
60294.121094 61354.503906 42112.582031
60489.128906 61619.636719 41924.011719
60675.601562 61873.472656 41760.121094
60712.570312 61863.949219 42155.632812
60317.976562 61330.972656 42526.191406
60505.480469 61583.562500 42338.503906
60689.828125 61801.878906 42562.292969
60510.562500 61561.140625 42736.718750
60684.753906 61789.207031 42925.265625
60328.648438 61318.539062 42927.179688
60515.675781 61564.695312 43120.687500
60693.550781 61818.382812 43277.273438
60330.468750 61319.210938 43328.855469
60523.015625 61596.214844 43511.242188
60733.585938 61920.835938 43661.550781
60499.988281 61687.265625 44380.812500
60518.164062 61636.125000 43925.406250
60701.339844 61942.636719 44088.785156
60572.394531 61869.589844 44677.519531
57348.140625 61966.003906 33266.566406
57489.339844 62201.675781 32985.460938
57474.574219 61973.941406 33615.171875
57612.492188 62002.734375 33959.503906
57686.898438 62171.109375 33696.367188
57231.054688 61754.808594 33524.480469
57758.171875 62043.917969 34308.421875
57879.804687 62286.953125 34001.058594
57692.570313 61849.597656 34606.804688
57896.140625 62090.304688 34631.265625
57852.609375 61905.000000 34940.960938
57909.925781 61838.597656 35239.539062
58085.417969 62091.640625 35202.523438
57650.949219 61687.699219 34857.781250
58056.726562 61784.839844 35713.445312
58033.000000 61900.007812 35442.429688
58471.914062 61993.156250 36323.765625
58455.828125 61789.886719 36626.062500
58663.757812 62050.480469 36648.339844
58825.195312 62072.273437 36951.296875
58781.414063 61868.089844 37194.582031
58976.402344 62092.117188 37222.468750
58626.503906 61843.628906 36907.945312
59165.941406 61929.257812 37837.511719
59015.214844 62165.222656 57295.675781
59030.296875 62120.851562 56933.578125
58984.019531 62162.589844 57650.421875
58836.167969 61910.496094 57819.375000
58958.128906 62145.375000 57987.964844
58818.660156 61886.945312 58148.585938
58941.781250 62125.808594 58318.800781
58813.179688 61870.515625 58472.371094
59038.597656 62166.250000 59789.699219
58935.886719 61968.996094 59635.921875
58964.574219 61945.703125 59960.847656
59261.519531 61826.875000 38168.503906
59400.898437 61997.054688 55000.511719
59416.363281 61892.703125 54694.425781
59226.167969 61742.214844 54918.636719
59204.714844 61847.574219 55265.984375
59307.585938 62094.308594 55557.886719
59083.300781 61816.730469 55624.929688
59004.515625 61817.519531 55953.312500
59167.367188 62002.042969 55818.093750
59423.511719 62053.066406 38100.625000
59436.812500 61871.523438 38405.519531
59638.625000 62122.160156 38372.609375
59850.105469 62165.625000 38688.976562
59734.234375 61891.207031 38919.253906
59949.402344 62082.781250 39012.273438
59623.257812 61939.777344 38628.183594
59897.117188 61889.496094 39253.187500
60009.253906 62171.898438 50863.117188
59952.480469 62132.589844 50541.832031
46332.031250 77718.007812 64894.949219
59798.781250 62078.765625 53932.070312
59633.132812 61849.679688 53892.910156
59626.730469 61945.683594 54168.324219
59606.238281 62045.179688 54480.523438
59744.742188 62265.699219 54579.960938
59815.851562 62229.636719 54264.199219
59588.265625 62148.222656 54783.796875
60149.308594 62166.734375 39283.074219
60274.867188 62147.949219 39596.683594
60079.710938 61933.187500 39574.480469
60129.136719 61700.406250 46345.609375
60161.531250 61911.289062 46727.570312
60279.453125 61987.609375 46422.234375
60011.238281 62107.808594 48000.464844
59926.156250 62060.300781 48407.199219
59889.710938 62067.839844 48803.238281
60027.437500 62131.625000 51270.179688
60149.257812 62365.238281 51086.992188
60054.312500 62121.531250 51692.390625
60243.144531 62460.742188 51434.152344
60268.851562 62438.683594 51913.257812
60071.636719 62121.148438 52135.148438
60308.437500 62475.789062 52357.890625
60090.082031 62158.117188 52577.335938
60235.554687 62405.308594 52904.355469
60025.703125 62102.363281 52908.843750
60486.554687 62141.765625 40160.722656
60446.707031 61943.000000 40544.312500
60531.570312 61848.449219 41136.996094
60669.390625 61929.468750 41452.058594
60484.089844 61691.339844 41524.625000
60864.210938 62232.910156 44227.406250
60865.425781 62164.613281 43901.250000
60701.160156 62021.375000 44453.406250
60846.003906 62291.539062 44577.484375
60698.359375 62105.902344 44788.425781
60678.746094 62182.207031 45136.468750
60790.367188 62134.734375 41257.929688
60837.921875 62110.285156 41616.664062
60833.988281 62050.375000 41912.496094
60901.496094 62113.152344 42150.421875
60866.078125 62042.699219 42439.250000
60841.296875 62000.140625 42762.382812
60838.558594 62008.394531 43077.902344
60973.246094 62186.617188 42642.375000
60843.523438 62042.605469 43361.457031
60976.816406 62199.058594 42917.093750
60961.039062 62256.675781 43574.585938
60972.406250 62218.949219 43220.914062
57598.199219 62180.136719 33381.093750
57721.800781 62361.421875 33200.843750
57897.593750 62534.453125 33206.664062
57857.343750 62402.507813 33530.007812
58161.652344 62521.632812 34306.042969
57957.722656 62255.507812 34382.027344
58024.925781 62154.003906 34884.167969
58091.128906 62325.832031 34654.656250
58213.144531 62360.039063 34982.035156
58458.945312 62638.933594 35091.414062
58338.480469 62380.375000 35318.710938
58545.687500 62492.359375 35652.718750
58493.167969 62219.683594 35998.812500
58255.000000 62110.742188 35614.324219
58742.812500 62527.535156 36063.878906
58705.179688 62285.804688 36364.281250
58967.417969 62598.820313 36435.082031
58913.839844 62330.218750 36729.125000
59003.304688 62258.097656 37016.785156
59172.324219 62499.199219 36981.890625
59137.628906 62297.296875 37215.011719
59167.035156 62157.531250 37483.746094
59371.015625 62472.007812 37389.867188
59397.742188 62246.925781 37766.023438
59309.214844 62216.843750 55880.769531
59528.988281 62607.523438 56119.652344
59448.164062 62428.511719 55942.523437
59316.937500 62341.460938 56208.125000
59452.140625 62811.308594 57034.867188
59385.285156 62622.382812 56764.957031
59226.007812 62459.769531 57073.156250
59336.187500 62714.628906 57377.535156
59153.382812 62429.691406 57487.242188
59263.148438 62657.851562 57703.484375
59107.562500 62403.050781 57835.371094
59224.808594 62638.664063 58029.210938
59080.207031 62384.171875 58170.628906
59204.312500 62632.449219 58365.046875
59067.132812 62371.339844 58507.414063
59199.531250 62635.449219 58716.027344
59062.113281 62352.937500 58849.496094
59196.960938 62617.890625 59082.851562
58910.113281 61980.730469 59299.761719
59046.988281 62240.082031 59529.277344
59197.554688 62579.695312 59471.238281
59151.632812 62422.539063 59786.375000
59617.773438 62535.796875 37739.925781
59851.472656 62391.355469 38356.542969
59714.386719 62497.101562 55216.542969
59785.585938 62437.230469 54853.457031
59569.007812 62248.316406 55083.753906
59400.394531 62099.457031 55257.835938
59476.000000 62368.089844 55685.265625
59521.503906 62310.132812 55387.308594
59608.203125 62603.039062 55823.316406
60031.472656 62433.882812 38619.710938
60099.605469 62320.875000 38920.812500
60365.226563 62326.132812 39463.539062
60137.980469 62018.078125 47096.390625
60169.613281 62302.117188 47707.445312
60299.664063 62439.531250 47434.406250
60151.410156 62158.917969 47402.386719
60324.074219 62595.640625 47730.683594
60195.117188 62455.394531 48023.988281
60077.714844 62311.726562 48281.011719
60058.062500 62347.613281 48603.687500
60050.296875 62394.328125 49022.003906
54274.937500 88748.554688 51487.906250
59868.296875 62080.972656 49499.859375
60256.023438 62774.019531 49828.968750
60094.753906 62478.660156 49884.402344
60176.199219 62576.808594 50238.386719
59975.816406 62246.125000 50041.144531
60004.824219 62259.523438 50332.605469
60292.988281 62620.441406 51036.003906
60265.406250 62652.003906 50667.488281
60163.617187 62439.609375 50842.906250
60254.664062 62547.910156 53448.585938
59987.839844 62232.734375 53635.644531
60175.500000 62557.449219 53843.078125
60074.546875 62235.781250 53220.613281
59964.722656 62316.000000 53974.308594
60352.796875 62488.980469 39158.613281
60540.839844 62527.476562 39493.628906
60700.292969 62278.632812 40461.808594
60728.210938 62465.347656 40097.644531
60954.398438 62407.953125 41068.640625
60905.375000 62454.218750 40703.304688
60697.792969 62137.824219 40854.863281
60880.769531 62633.519531 45417.937500
60813.480469 62436.765625 45208.687500
60677.367188 62323.453125 45539.335938
60776.156250 62748.589844 46151.656250
60808.058594 62642.968750 45770.578125
60617.277344 62395.820312 45990.906250
60430.273438 62171.968750 46238.894531
60570.546875 62474.515625 46373.128906
60695.390625 62786.960938 46565.160156
60955.683594 62718.789062 40217.796875
60876.507812 62523.832031 40406.226562
61001.714844 62373.500000 41459.855469
61013.132812 62309.503906 41892.687500
61222.125000 62608.300781 42094.542969
61187.335937 62606.960938 41680.835938
61054.042969 62322.296875 42353.519531
61253.089844 62634.265625 42518.769531
61107.898438 62394.847656 42734.562500
61254.960938 62646.386719 42908.652344
61107.531250 62412.890625 43062.328125
61224.542969 62633.781250 43255.050781
61087.257812 62415.339844 43338.085938
61043.246094 62475.667969 43971.425781
60999.171875 62504.343750 44394.265625
60832.914062 62368.765625 44907.742188
60987.824219 62683.937500 45024.125000
60954.503906 62515.730469 44706.722656
58091.710938 62678.093750 33405.812500
58326.902344 62866.968750 33641.542969
58363.714844 62815.457031 34064.527344
58113.292969 62596.128906 33824.355469
58428.347656 62793.777344 34474.785156
58649.140625 63012.027344 34655.343750
58501.914062 62795.023438 34798.753906
58906.281250 63150.703125 35245.074219
58867.191406 63219.234375 34863.285156
58678.726562 62944.988281 35015.324219
58695.453125 62817.027344 35403.406250
58823.050781 62787.652344 35809.589844
58945.906250 62772.308594 36125.531250
59057.636719 63012.539062 35977.871094
59150.097656 62924.457031 36323.757812
59252.105469 62797.589844 36710.203125
59449.132812 62778.484375 37105.539062
59367.699219 62878.941406 57892.976562
59399.226562 62878.187500 57613.308594
59478.703125 63120.156250 58063.398437
59502.898438 63093.917969 57733.765625
59341.984375 62881.757812 58218.632813
59455.734375 63129.539062 58397.171875
59330.343750 62892.382812 58556.886719
59350.304688 62945.824219 58942.550781
59441.503906 63130.433594 58691.894531
59322.628906 62869.089844 59326.777344
59451.312500 63157.351562 59259.566406
59429.144531 63074.546875 59638.656250
59312.105469 62821.929688 59563.335938
59539.101562 63076.804688 36875.539062
59696.656250 63038.867188 37216.531250
59872.039063 63023.566406 37555.226562
59639.679687 62773.226562 37457.136719
59805.398438 62777.925781 37745.863281
59818.175781 62831.871094 55664.339844
59660.757812 62554.042969 55524.910156
59711.816406 62820.984375 55999.472656
59870.191406 63014.746094 55911.472656
59445.609375 62606.589844 56444.812500
59636.613281 62833.277344 56301.519531
59737.558594 63037.417969 56423.609375
59802.078125 63027.527344 56171.023438
59526.601562 63039.808594 57371.726562
59652.199219 63129.613281 56988.121094
59584.773437 62892.503906 56655.433594
59842.835938 62611.578125 38035.531250
60037.410156 62942.859375 37952.371094
60096.339844 62699.031250 38370.699219
60242.054688 62601.515625 38770.308594
60397.890625 62927.019531 38617.539062
60384.722656 62905.988281 50442.972656
60285.628906 62956.523438 54501.746094
60104.453125 62677.113281 54414.105469
60034.089844 62712.148438 54717.457031
60186.167969 63019.792969 54951.972656
59823.894531 62710.761719 55365.937500
60003.625000 62947.640625 55339.597656
59924.058594 62720.687500 55075.363281
60448.351562 62748.031250 38949.710938
60629.332031 62985.832031 38977.332031
60799.121094 62993.414063 39321.554688
60591.429688 62746.367188 39240.460938
60739.835938 62752.394531 39559.164062
60723.695312 63137.902344 47213.699219
60573.652344 62839.996094 47183.214844
60581.457031 62980.382812 47483.371094
60442.925781 62709.843750 47451.468750
60733.710937 63400.562500 47871.507812
60725.847656 63274.570312 47539.402344
60575.937500 63088.929688 47810.257812
60215.863281 62589.335938 48364.968750
60387.230469 62927.769531 48483.968750
60388.339844 62818.480469 48049.011719
60216.652344 62667.875000 48744.363281
60388.222656 62995.593750 48885.617188
60232.058594 62741.316406 49114.656250
60398.578125 63041.253906 49273.550781
60386.289062 63019.132813 49596.976562
60453.027344 63109.207031 49883.828125
60246.488281 62779.296875 49455.464844
60351.425781 62906.421875 50126.164062
60505.796875 63153.242187 50219.828125
60672.531250 63261.785156 51003.964844
60485.609375 62982.335938 50870.562500
60617.886719 63113.082031 51255.785156
50565.292969 88809.242188 51234.753906
50434.781250 89041.031250 50933.765625
50308.558594 88485.710938 51666.152344
50055.445312 88585.593750 51545.886719
50302.316406 88682.914062 51410.503906
60452.585938 62756.359375 51710.593750
60673.046875 63084.792969 51900.792969
60480.062500 62752.425781 52116.722656
60666.984375 63033.664062 52383.109375
60472.625000 62737.347656 52701.148438
60732.140625 63140.039062 52835.945312
60428.503906 62723.917969 53122.664062
60643.925781 63046.148438 53178.414062
60490.562500 62894.085937 53503.652344
60604.621094 63132.156250 53800.187500
60725.593750 63219.089844 53472.605469
60388.648438 62849.988281 53847.964844
60243.488281 62761.675781 54154.609375
60934.703125 62980.476562 39666.136719
60676.683594 62555.589844 39763.058594
60854.378906 62735.035156 39884.363281
61040.253906 62702.554688 40548.765625
61138.199219 62944.066406 40362.367188
61212.292969 62919.410156 40718.542969
61172.445312 62673.148438 41273.683594
61251.148438 62873.472656 41023.812500
61098.441406 62669.988281 40887.886719
61155.976562 62934.898438 44844.164062
61253.648438 63023.843750 44552.820312
61089.886719 62737.503906 44630.984375
61140.375000 63013.117187 45130.425781
61019.718750 62855.031250 45328.136719
61112.648438 63085.953125 45444.078125
60970.058594 62875.250000 45608.582031
60917.992188 62895.121094 45886.070312
61390.621094 63162.917969 40960.777344
61346.574219 62963.058594 41281.632812
61307.902344 62829.253906 41532.210938
61440.515625 63058.464844 41584.832031
61356.722656 62860.230469 41848.472656
61517.636719 63142.476562 41925.832031
61584.027344 63229.199219 42228.914062
61424.578125 62939.316406 42275.402344
61578.953125 63210.386719 42558.425781
61419.011719 62925.707031 42735.875000
61581.324219 63244.070312 42995.218750
61390.246094 62910.398438 43134.242188
61505.449219 63167.804687 43389.996094
61332.160156 62872.402344 43500.058594
61443.128906 63141.371094 43754.996094
61154.230469 62576.390625 43584.113281
61256.730469 62828.105469 43873.949219
61172.906250 62781.875000 44264.683594
61376.984375 63139.703125 44172.335938
58760.457031 63353.562500 33264.148438
58537.777344 63115.136719 33455.753906
58994.441406 63550.871094 33477.203125
58770.902344 63316.085938 33667.972656
58562.769531 63072.878906 33862.257812
58791.664062 63284.171875 34073.113281
58826.527344 63257.378906 34473.812500
58601.199219 63040.179687 34270.453125
59050.054688 63474.277344 34680.679688
59094.843750 63433.761719 35082.277344
58966.589844 63075.093750 35621.175781
59132.730469 63357.042969 35461.691406
59186.714844 63276.406250 35807.480469
59383.230469 63467.171875 35949.339844
59279.765625 63213.546875 36148.738281
59503.464844 63442.023437 36284.988281
59400.183594 63145.906250 36509.863281
59668.738281 63416.066406 36678.898438
59891.750000 63523.582031 36990.421875
59744.152344 63272.339844 37012.164062
59906.796875 63293.933594 37292.570312
59777.578125 63203.042969 56650.914062
59882.382812 63234.039063 56348.011719
59953.109375 63459.644531 56565.652344
59858.433594 63635.160156 57286.191406
59713.929688 63358.285156 57297.683594
59764.910156 63582.738281 57634.433594
59625.519531 63286.449219 57582.519531
59615.527344 63351.707031 57885.230469
59588.476562 63377.972656 58239.585938
59729.718750 63639.171875 58050.855469
59558.691406 63370.925781 58588.996094
59518.753906 63312.230469 58956.632813
59693.718750 63648.097656 58427.941406
59659.250000 63623.640625 58795.050781
59552.175781 63380.074219 59467.800781
59671.531250 63673.460938 59524.300781
59608.242188 63494.769531 59739.824219
59539.988281 63296.148438 59942.046875
59641.996094 63551.316406 59980.046875
60095.937500 63585.910156 37310.261719
60125.617187 63308.589844 37677.597656
60300.222656 63466.445312 55567.851563
60049.535156 63167.402344 55676.097656
60168.585937 63457.796875 55910.679688
59970.402344 63225.730469 56042.707031
60057.628906 63463.910156 56244.078125
60416.257812 63495.140625 37991.859375
60255.000000 63191.324219 38039.156250
60438.554688 63225.367188 38327.683594
60643.773438 63511.593750 38385.207031
60881.136719 63588.468750 38770.167969
60646.863281 63248.125000 38688.109375
60847.980469 63270.082031 39065.609375
60586.640625 63222.750000 48215.082031
60885.000000 63804.355469 48508.988281
60786.769531 63574.210938 48175.574219
60704.894531 63485.238281 48471.589844
60724.664063 63561.117188 48807.519531
60566.238281 63313.074219 49058.085938
60595.707031 63366.589844 49534.562500
60680.195312 63415.625000 50349.093750
60854.199219 63734.812500 50116.902344
60642.675781 63409.925781 49979.625000
60789.875000 63564.406250 54355.261719
60550.671875 63272.414062 54422.175781
60644.035156 63522.273437 54732.851562
60462.703125 63048.832031 54135.371094
60416.968750 63351.292969 55012.074219
60603.996094 63634.066406 55096.226562
60420.050781 63484.171875 55282.082031
61074.757812 63577.054688 39212.781250
61002.945312 63251.929688 39440.468750
61120.687500 63221.570312 39799.152344
61030.718750 63481.371094 46621.425781
61189.328125 63731.066406 46427.414062
61106.035156 63489.738281 46319.660156
60953.710938 63064.031250 46101.566406
60857.316406 62994.566406 46356.203125
60986.898438 63250.566406 46348.226562
60878.257812 63463.683594 47267.277344
60873.410156 63304.683594 46930.042969
61046.777344 63837.738281 47353.500000
60874.941406 63585.539063 47608.015625
57778.265625 90256.156250 41804.332031
60844.820312 63327.566406 52165.781250
60919.753906 63424.855469 52540.015625
61107.406250 63724.183594 52489.582031
61077.316406 63673.238281 52804.441406
60832.710938 63322.421875 53167.855469
61018.921875 63606.664062 53171.808594
60893.656250 63451.769531 53420.140625
60840.285156 63446.105469 53745.867188
60691.621094 63338.484375 54086.894531
61187.195312 63497.921875 39597.195312
61287.816406 63469.445312 39944.273438
61044.695313 62961.214844 40011.605469
61220.972656 63202.378906 40155.019531
61382.828125 63461.785156 40296.218750
61313.339844 63194.851562 40529.800781
61500.445313 63518.386719 40689.074219
61591.875000 63504.750000 41162.535156
61479.359375 63207.683594 41318.824219
61601.941406 63376.195312 41604.652344
61708.113281 63458.242188 42362.472656
61669.050781 63422.671875 42007.160156
61728.253906 63494.367187 42722.750000
61612.089844 63423.796875 43617.824219
61704.953125 63657.863281 43804.960938
61560.066406 63426.832031 43963.468750
61686.597656 63739.167969 44151.183594
61523.210938 63455.863281 44266.355469
61415.039062 63333.683594 44526.042969
61568.511719 63638.585938 44511.878906
61458.640625 63516.886719 44770.164062
61257.128906 63304.003906 45256.007812
61359.265625 63618.515625 45460.351562
61413.453125 63552.632812 45072.085938
59235.250000 63775.605469 33298.863281
59442.835938 63956.457031 33507.699219
59214.167969 63747.058594 33688.148438
59430.617188 63950.730469 33888.285156
58995.363281 63520.234375 33878.007812
59014.277344 63497.281250 34279.488281
59214.152344 63728.562500 34082.855469
59432.492188 63945.242188 34282.769531
59235.351562 63714.726563 34482.812500
59276.589844 63695.792969 34891.117188
59502.468750 63928.574219 35082.355469
59456.039062 63939.343750 34680.628906
59336.953125 63654.460938 35339.804688
59580.910156 63926.019531 35476.054688
59302.515625 63496.542969 35659.277344
59476.363281 63695.453125 35727.582031
59735.382812 63742.054688 36348.824219
59708.390625 63942.417969 35894.511719
59558.816406 63660.027344 36043.441406
59940.304688 63893.824219 57485.960938
59875.539062 63905.316406 57856.406250
59960.929688 64160.648438 58007.402344
59844.121094 63959.789062 58248.304688
59978.050781 64288.941406 58262.261719
59787.742188 63909.960938 58624.351562
59896.136719 64154.882812 58501.867188
59764.585938 63899.640625 58972.265625
59877.574219 64164.867188 58790.972656
59638.796875 63598.144531 59183.972656
59716.679688 63771.156250 59810.070312
59860.234375 63696.613281 36707.191406
60072.953125 63861.718750 36942.070312
60295.328125 63888.933594 37353.273438
60255.015625 63716.871094 56141.933594
60130.304687 63707.433594 56467.585937
59856.578125 63475.656250 56943.031250
60025.449219 63862.601562 57078.000000
60026.503906 63689.683594 56754.078125
60183.035156 63949.210938 56723.136719
60516.492188 63881.546875 37776.773438
60633.703125 63734.906250 38134.105469
60289.070312 63631.164062 37619.253906
60814.843750 63801.281250 38411.660156
60392.699219 63724.589844 55805.578125
60552.542969 63745.238281 55448.058594
60930.445312 64067.550781 38396.015625
61005.027344 63932.468750 38680.632812
61078.851562 63810.824219 38962.605469
61216.402344 63898.683594 39216.535156
61245.941406 63747.574219 39456.828125
61003.214844 63875.398437 47744.492188
61245.753906 64363.503906 47769.937500
61155.054688 64136.773438 47592.847656
61117.945312 64145.597656 47937.902344
60956.375000 63868.710938 48096.765625
60925.406250 63917.257812 49317.316406
60806.035156 63715.449219 49509.367188
60981.132813 63989.203125 49722.972656
61095.656250 64061.875000 50525.074219
61234.847656 64201.207031 50958.003906
61010.226562 63840.980469 50904.523438
61115.953125 63937.617187 51254.531250
61150.148438 63827.394531 53324.039062
61197.875000 63876.253906 53038.679687
61022.839844 63663.390625 53519.750000
61184.566406 63922.714844 53592.964844
61032.480469 63746.871094 53844.085937
49730.722656 88612.078125 51512.429688
60908.621094 63826.453125 54612.695312
60881.933594 63586.937500 54052.433594
61034.039063 63856.769531 54218.007812
60794.246094 63798.964844 54914.164062
61370.414062 64033.406250 39524.464844
61341.035156 63742.085938 39749.441406
61480.519531 63999.339844 39907.757812
61433.019531 63717.734375 40086.039062
61506.281250 63700.097656 40381.656250
61622.832031 63869.980469 40591.011719
61587.964844 63825.332031 44860.187500
61206.695313 63329.531250 45550.386719
61223.375000 63490.929688 45807.476562
61326.441406 63934.550781 46220.160156
61296.367188 64024.406250 46534.414062
61027.296875 63646.757813 46985.082031
61162.371094 63822.371094 46732.531250
61564.449219 63951.386719 40252.160156
61656.230469 63770.375000 40902.574219
61758.847656 63866.058594 41205.468750
61718.707031 63664.769531 41459.277344
61850.582031 63928.046875 41556.507812
61765.160156 63667.207031 41778.152344
61909.949219 63941.812500 41916.421875
61813.957031 63692.917969 42139.320312
61955.152344 63964.019531 42276.988281
62076.339844 64210.136719 42382.574219
61997.410156 64026.121094 42671.531250
61849.167969 63727.628906 42500.007812
61860.500000 63752.550781 42817.363281
61936.394531 63935.597656 43103.878906
61653.660156 63428.828125 43312.257812
61762.777344 63593.960938 43073.195312
61787.171875 63719.652344 43459.070312
49922.804688 88373.382812 51819.496094
49472.175781 88432.429688 51740.281250
59665.394531 64160.445312 33687.675781
59889.035156 64382.753906 33885.042969
59930.222656 64362.824219 33456.605469
59649.492188 64168.078125 34084.835938
59649.453125 64170.953125 34480.261719
59670.964844 64169.054688 34870.328125
59874.902344 64397.027344 35059.539062
59712.472656 64160.738281 35247.687500
59858.410156 64152.492188 59088.058594
59765.589844 64146.300781 35577.101562
59943.308594 64307.703125 35845.460938
59925.511719 64094.496094 36249.046875
60116.085938 64412.093750 36217.898438
60140.640625 64213.378906 36621.679688
60109.136719 64180.292969 57351.425781
60229.429688 64206.078125 57002.371094
60264.035156 64426.328125 57246.394531
60197.914062 64487.410156 57576.496094
60026.078125 64183.519531 57707.578125
60095.710937 64453.675781 57963.898437
59965.843750 64417.859375 58972.695312
59918.617188 64328.441406 59356.296875
59809.468750 64005.640625 60015.320312
59907.562500 64290.582031 59936.585938
60308.816406 64562.359375 36509.117188
60352.777344 64432.023438 36824.871094
60308.304688 64177.757812 37050.351562
60510.285156 64465.625000 37137.921875
60504.683594 64192.105469 37435.253906
60469.296875 63985.824219 56050.996094
60615.113281 63993.429688 55728.714844
60688.144531 64254.042969 55958.609375
60324.632812 63977.195312 56386.843750
60383.683594 64249.167969 56650.726562
60538.300781 64257.269531 56294.699219
