1230
77505.937500 35863.000000 46333.605469
77670.390625 35776.894531 44609.648438
67125.195312 61005.320312 47471.000000
77553.953125 35901.375000 45771.179688
78002.437500 35678.621094 42978.835938
77887.882812 35740.140625 43257.957031
77786.257812 35798.328125 43558.628906
77672.281250 35862.664062 43913.859375
77667.578125 35807.882812 44292.265625
87994.148438 36301.484375 12341.810547
87914.554688 36212.191406 12168.057617
78162.750000 35618.359375 42684.988281
78322.203125 35706.332031 42385.296875
78539.554688 35755.402344 42146.527344
72107.757812 60215.242187 47468.519531
78809.007812 35780.507812 41946.781250
79115.164062 35785.265625 41774.511719
79395.921875 35764.890625 41632.558594
79932.750000 35775.902344 41320.007812
72692.312500 59765.609375 47468.203125
80208.562500 35834.062500 41096.289062
80386.773438 35891.000000 40913.375000
80566.531250 35815.800781 40745.257812
80746.039062 35754.796875 40557.117188
80914.585938 35820.218750 40307.105469
81119.414062 35744.675781 40007.761719
81808.304688 35833.699219 38763.402344
81625.187500 35739.046875 39034.714844
90625.273438 39025.046875 24680.152344
74663.000000 36159.054688 47450.097656
74973.914062 36247.269531 47416.781250
75246.054688 36119.746094 47410.937500
75504.312500 35999.375000 47408.027344
75789.195312 36068.652344 47342.449219
76097.320312 36189.523438 47219.800781
76336.789062 36055.210938 47216.703125
76600.109375 36085.195312 47079.441406
77133.046875 36101.296875 46604.640625
77316.429688 36047.546875 46387.640625
77474.367188 35983.781250 44499.757812
77287.570312 36131.695312 44701.144531
77144.375000 36256.601562 45528.656250
77335.914062 36112.343750 45755.664062
77382.570312 36049.132812 46075.394531
77710.085938 36011.011719 43306.296875
77580.734375 36063.011719 43606.042969
77421.804688 36155.476562 43874.890625
77455.085938 36047.738281 44181.664062
68277.078125 59364.429688 47470.304688
77854.914062 35951.285156 43010.101562
78000.500000 35866.683594 42776.253906
78140.257812 35931.398438 42521.148438
78361.578125 35997.421875 42250.585938
78631.718750 36048.132812 42027.804688
78940.242188 36082.890625 41845.207031
79300.921875 36108.921875 41665.906250
79624.914062 35931.246094 41498.085938
79854.835938 36122.425781 41343.449219
80057.148438 36025.687500 41189.496094
80264.820312 36147.902344 40992.875000
80473.406250 36029.550781 40785.851562
80680.078125 36028.285156 40557.550781
81037.937500 36005.902344 40084.582031
67730.492188 15077.006836 46262.785156
67891.687500 15317.601562 46260.414062
63706.832031 17728.375000 43285.785156
81219.953125 36030.125000 39802.507812
81522.843750 35976.488281 39255.890625
81375.671875 35900.804688 39517.753906
81862.554688 36112.980469 38760.160156
73925.671875 36322.457031 47462.730469
74176.335938 36546.820312 47435.132812
74467.304688 36403.089844 47440.398438
74790.664062 36569.066406 47374.882812
75530.203125 36276.074219 47327.687500
75831.609375 36378.195312 47202.773438
76367.671875 36291.382812 47047.238281
70845.921875 59303.023438 47468.054688
77122.179688 36234.031250 46287.582031
77253.250000 36193.535156 44411.453125
77066.265625 36315.218750 44631.777344
77126.945312 36251.269531 44867.558594
80882.835938 58355.414062 29860.968750
70700.640625 59121.617188 47468.074219
77121.179688 36279.691406 45924.460938
77220.382812 36283.347656 44114.320312
77199.507812 36398.269531 43821.492188
77677.710938 36258.136719 43047.054688
77500.710938 36280.808594 43366.921875
71081.273438 59276.757812 47468.031250
77386.335938 36284.363281 43629.656250
77917.398438 36190.929688 42706.546875
78168.664062 36252.238281 42376.042969
87935.554688 36033.617188 12349.181641
78444.523438 36314.929688 42127.921875
78746.421875 36357.683594 41935.824219
79057.453125 36406.171875 41784.687500
79357.859375 36493.097656 41651.902344
79606.101562 36290.683594 41506.832031
70026.265625 59372.019531 47468.335938
80036.062500 36245.011719 41198.230469
80148.804688 36465.328125 41120.300781
80498.445312 36257.355469 40745.320312
80354.664062 36432.097656 40916.402344
80885.757812 36161.714844 40290.796875
81073.429688 36284.390625 40042.593750
81263.320312 36410.570312 39789.917969
86199.531250 58084.199219 24047.185547
73820.531250 36613.429688 47438.871094
74301.429688 36921.968750 47342.449219
74470.187500 36660.031250 47404.335938
87868.562500 57618.472656 30082.671875
76105.250000 36469.878906 47025.972656
76347.375000 36532.488281 46791.402344
69290.726562 59208.265625 47469.132812
69025.015625 59260.609375 47469.484375
76863.593750 36466.367188 45743.421875
76980.085938 36506.453125 44059.605469
77013.132812 36401.789062 44350.558594
76766.593750 36608.746094 44298.312500
76816.281250 36511.195312 44593.082031
76912.093750 36413.574219 44869.218750
76805.476562 36486.304688 45103.632812
76848.882812 36464.207031 45389.457031
77227.820312 36540.101562 43491.558594
76970.851562 36633.714844 43772.523438
77441.265625 36561.082031 43134.304688
77693.312500 36599.859375 42775.980469
69564.804688 59158.324219 47468.796875
69739.070312 59398.593750 47468.562500
69851.976562 59114.167969 47468.515625
77976.992188 36536.050781 42483.500000
77846.429688 36805.843750 42526.101562
78246.742188 36579.730469 42237.742188
78567.445312 36665.312500 42025.226562
78864.054688 36618.792969 41876.417969
79135.421875 36759.316406 41771.792969
79614.945312 36616.937500 41533.000000
79872.453125 36467.042969 41346.480469
80713.382812 36358.003906 40514.750000
80927.500000 36483.371094 40278.636719
81139.882812 36622.628906 40042.132812
81418.750000 36543.230469 39588.226562
73166.625000 37050.292969 47381.769531
73767.882812 36898.531250 47391.042969
73578.562500 37159.574219 47325.355469
74008.226562 36825.265625 47397.199219
74601.515625 36846.984375 47336.105469
75064.062500 36777.699219 47246.246094
75601.585938 36853.890625 46953.230469
75842.382812 36653.437500 47003.472656
76056.484375 36718.375000 46776.859375
76248.992188 36747.757812 46487.394531
76385.765625 36780.882812 45103.714844
76596.078125 36634.261719 45240.539062
76332.835938 36813.460938 45399.816406
76594.515625 36643.484375 45575.535156
76745.015625 36726.097656 44006.117188
76527.023438 36821.832031 44244.480469
76569.609375 36707.238281 44536.542969
76601.640625 36640.250000 44873.355469
76952.835938 36823.300781 43513.800781
77179.296875 36836.890625 43224.367188
77415.515625 36896.246094 42925.191406
77655.476562 37007.003906 42653.167969
78061.648438 36829.621094 42336.296875
78321.718750 36902.156250 42154.578125
78567.398438 36989.468750 42023.027344
78822.968750 36894.496094 41907.386719
69466.570312 59435.402344 47468.867188
79418.640625 36761.753906 41652.429688
79809.273438 36767.539062 41441.835938
80047.992188 36763.359375 41268.843750
80350.109375 36745.507812 41002.496094
80548.828125 36553.019531 40738.027344
80780.437500 36671.839844 40517.453125
81005.585938 36805.828125 40299.550781
81248.468750 37008.003906 40078.792969
81346.546875 36740.542969 39789.347656
81533.664062 36785.523438 39520.820312
81678.937500 36761.234375 39286.277344
73968.148438 37134.781250 47303.367188
74278.156250 37288.800781 47171.671875
74580.054688 37118.328125 47207.621094
74839.992188 36939.031250 47235.484375
75104.757812 37035.500000 47071.523438
75368.023438 37074.867188 46869.671875
75622.992188 37056.566406 46677.636719
75814.984375 36863.597656 46790.394531
75910.781250 37083.546875 45850.003906
76308.937500 36857.632812 44852.566406
76309.546875 36921.988281 44520.554688
76442.007812 36774.652344 44694.031250
76707.234375 37044.886719 43575.667969
76767.539062 36835.316406 43753.484375
76524.335938 36984.296875 43911.242188
69120.429688 59027.824219 47469.425781
76927.835938 37088.632812 43293.660156
77167.085938 37152.632812 43027.832031
77418.226562 37259.562500 42781.644531
77904.062500 37086.398438 42426.007812
78140.140625 37091.070312 42257.863281
78398.765625 37265.960938 42125.105469
78755.500000 37219.042969 41962.710938
79064.085938 37108.855469 41835.460938
79357.484375 37015.203125 41713.835938
79616.781250 36910.816406 41579.859375
79897.867188 37076.695312 41459.921875
80230.226562 37065.945312 41227.179688
80639.281250 36864.031250 40758.957031
80880.203125 36970.929688 40542.863281
81073.921875 37072.632812 40359.796875
81719.796875 37064.929688 39387.339844
81495.445312 37066.886719 39737.367188
73313.773438 37358.562500 47279.714844
74023.000000 37425.703125 47152.093750
74559.046875 37423.453125 46980.937500
74850.570312 37231.085938 47030.117188
75377.968750 37289.781250 46519.675781
75113.265625 37290.378906 46799.617188
75635.867188 37175.421875 46411.644531
75541.585938 37333.921875 45855.671875
75516.179688 37304.460938 46219.507812
76015.929688 37243.074219 44354.402344
76041.078125 37085.460938 44776.433594
75794.953125 37301.308594 44704.882812
75750.554688 37255.824219 45076.792969
76244.406250 37237.019531 43965.281250
76313.218750 37029.878906 44197.386719
76462.039062 37264.968750 43653.300781
76692.679688 37323.761719 43365.347656
76939.453125 37389.957031 43112.003906
77184.078125 37474.523438 42895.617188
77424.125000 37621.789062 42716.128906
77723.078125 37423.156250 42537.597656
78065.320312 37377.105469 42310.714844
78693.484375 37615.113281 42046.796875
79012.234375 37436.359375 41899.308594
79306.859375 37323.984375 41783.093750
79596.492188 37217.230469 41650.976562
82912.945312 58608.367188 29035.394531
73268.250000 37636.664062 47150.406250
69413.515625 57749.339844 47470.054688
69403.140625 58020.882812 47469.902344
74196.312500 37644.312500 46914.347656
74836.320312 37487.359375 46748.812500
75075.867188 37500.007812 46473.875000
75194.265625 37576.437500 45827.355469
75282.867188 37463.515625 46171.292969
75000.250000 37653.113281 46136.320312
75415.781250 37484.511719 45235.898438
75603.429688 37318.687500 45453.683594
75362.070312 37484.949219 45563.964844
75216.875000 37677.878906 45033.722656
75111.234375 37679.152344 45438.457031
75510.093750 37496.957031 44834.785156
76001.515625 37479.003906 43991.960938
75799.484375 37516.757812 44215.105469
75683.062500 37475.425781 44488.175781
76223.867188 37499.937500 43709.972656
76465.812500 37564.152344 43437.515625
76731.273438 37634.496094 43189.769531
76994.742188 37692.000000 42983.265625
77211.226562 37742.210938 42834.324219
86744.531250 31660.519531 14129.409180
77681.914062 37882.738281 42574.109375
88107.500000 57786.085938 29457.296875
77982.781250 37728.144531 42384.585938
78302.679688 37662.074219 42215.039062
79008.460938 37716.511719 41952.902344
79261.320312 37630.324219 41858.562500
79550.445312 37535.312500 41745.527344
79845.062500 37440.792969 41600.445312
81840.289062 37388.187500 39376.500000
73208.210938 37882.269531 47000.894531
73557.234375 37848.808594 46934.710938
73900.445312 37821.167969 46867.800781
74059.203125 37896.250000 46697.628906
74294.992188 37867.320312 46573.804688
74536.804688 37849.183594 46371.070312
74547.570312 37677.421875 46683.511719
74632.859375 37936.875000 45805.988281
74729.796875 37822.992188 46106.734375
74477.046875 37969.921875 46085.468750
74797.343750 37683.589844 46428.382812
74770.585938 37912.445312 45447.527344
74904.632812 37771.175781 45795.015625
74972.757812 37834.152344 45154.019531
75459.679688 37636.738281 44563.867188
75296.726562 37700.957031 44742.289062
75553.265625 37728.460938 44276.011719
75782.132812 37725.515625 43993.246094
76005.296875 37732.917969 43753.875000
76239.812500 37791.144531 43513.824219
76516.242188 37919.878906 43271.832031
76832.523438 37945.371094 43063.343750
77109.320312 37975.167969 42897.593750
77373.718750 37944.902344 42747.566406
77976.632812 38058.328125 42447.156250
78199.960938 37944.589844 42310.832031
78523.781250 38019.113281 42206.257812
78892.226562 37966.449219 42058.027344
79201.171875 37921.937500 41950.464844
79496.242188 37843.371094 41846.218750
79791.304688 37758.812500 41725.148438
80082.031250 37688.773438 41575.394531
81332.703125 38075.742188 40681.800781
73271.015625 38083.214844 46787.281250
73544.617188 38101.277344 46659.261719
73812.750000 38002.875000 46671.601562
74058.601562 38051.925781 46412.742188
74222.843750 38096.156250 46090.949219
74324.531250 37980.582031 46310.523438
74385.695312 38077.160156 45817.851562
74524.054688 38042.304688 45581.277344
74760.062500 38025.968750 45059.179688
75047.054688 37904.074219 44794.859375
75346.890625 37975.945312 44240.593750
75288.421875 37835.000000 44496.816406
75078.992188 38134.316406 44404.777344
75569.734375 38020.500000 43985.582031
75822.203125 37949.250000 43791.484375
76028.367188 38016.250000 43589.503906
76261.320312 38061.144531 43405.953125
76439.648438 38297.328125 43275.683594
76693.601562 38178.871094 43134.597656
76978.320312 38283.437500 43000.792969
77290.109375 38237.949219 42838.269531
77558.828125 38194.597656 42694.097656
77787.320312 38185.851562 42575.523438
77999.234375 38351.039062 42539.078125
78249.984375 38227.937500 42382.601562
83753.273438 25692.130859 44743.378906
78824.796875 38282.753906 42195.375000
79129.476562 38211.843750 42071.656250
79434.140625 38142.582031 41961.976562
79735.828125 38063.175781 41847.574219
80021.601562 37983.765625 41717.320312
80883.656250 37884.484375 41107.203125
81152.335938 37991.347656 40878.964844
82340.289062 38000.527344 38880.820312
73331.515625 38301.136719 46448.421875
73719.445312 38189.675781 46405.398438
73933.257812 38226.750000 46103.679688
73597.835938 38376.375000 46098.007812
83825.046875 24716.392578 46283.742188
73839.835938 38383.167969 45790.148438
74128.921875 38221.250000 45807.355469
74315.625000 38182.847656 45538.941406
74515.070312 38258.457031 44975.539062
74522.539062 38114.128906 45302.566406
74278.132812 38314.015625 45235.332031
74780.218750 38194.117188 44708.371094
75294.656250 38224.964844 44094.625000
75483.867188 38318.421875 43890.804688
75778.742188 38298.242188 43698.011719
76122.148438 38306.382812 43463.085938
76720.421875 38458.832031 43144.031250
76981.171875 38641.984375 43078.386719
77241.695312 38538.414062 42941.964844
77501.742188 38471.468750 42807.257812
77751.148438 38419.988281 42676.453125
78543.023438 38392.039062 42343.664062
79077.609375 38494.511719 42220.089844
79978.132812 38274.414062 41849.632812
80213.890625 38176.429688 41712.621094
80496.476562 38239.816406 41588.375000
80795.281250 38180.246094 41347.394531
81053.953125 38204.019531 41115.660156
81275.601562 38266.894531 40877.679688
81461.820312 38307.027344 40605.707031
82301.414062 38254.308594 39094.253906
82472.187500 38286.109375 38811.937500
73207.148438 38563.156250 46058.566406
73523.710938 38567.222656 45755.164062
73777.789062 38557.414062 45469.769531
74018.242188 38534.015625 45196.601562
74059.179688 38358.410156 45503.320312
74265.609375 38505.859375 44932.273438
74532.210938 38481.058594 44668.687500
74288.156250 38769.792969 44669.484375
74809.265625 38446.316406 44412.660156
75062.359375 38453.218750 44172.468750
75294.054688 38519.457031 43961.871094
75538.117188 38576.000000 43789.453125
75755.585938 38648.605469 43659.960938
75993.921875 38602.816406 43532.656250
76281.429688 38586.312500 43374.609375
76522.476562 38589.214844 43253.460938
76729.640625 38762.324219 43209.449219
77240.539062 38830.468750 43051.730469
77476.382812 38737.582031 42927.539062
77716.585938 38670.511719 42806.695312
77971.742188 38618.035156 42683.179688
78287.101562 38565.632812 42536.191406
78583.757812 38644.402344 42471.757812
79951.734375 38602.464844 42009.554688
80246.773438 38442.144531 41812.570312
80740.531250 38425.707031 41519.496094
80967.984375 38442.421875 41335.062500
81199.890625 38488.550781 41102.742188
81408.156250 38552.843750 40839.261719
82273.187500 38520.207031 39312.164062
82607.382812 38557.359375 38748.218750
82449.375000 38532.875000 39024.625000
73221.109375 38769.105469 45686.160156
73486.757812 38775.136719 45429.703125
73747.585938 38774.378906 45170.042969
74012.140625 38767.718750 44918.125000
92007.187500 41422.097656 32583.113281
74599.007812 38800.957031 44402.785156
74872.968750 38694.195312 44220.730469
75094.250000 38768.277344 44045.878906
75358.460938 38828.074219 43878.808594
75623.164062 38878.710938 43739.429688
75897.007812 38904.546875 43612.863281
76186.937500 38886.625000 43476.585938
76469.859375 38842.101562 43338.062500
76995.140625 38956.429688 43189.781250
81273.023438 24613.257812 39721.894531
77470.960938 38962.621094 43044.199219
77704.414062 38916.363281 42950.300781
77914.554688 38829.648438 42829.648438
78180.515625 38844.406250 42755.855469
92165.671875 43254.308594 18221.431641
79517.648438 38892.597656 42335.554688
79816.718750 38873.800781 42214.953125
80070.984375 38861.687500 42106.128906
80267.890625 38736.890625 41950.175781
80553.859375 38615.812500 41737.453125
80864.750000 38674.777344 41549.539062
81119.359375 38720.714844 41328.710938
81342.046875 38780.605469 41076.718750
82105.812500 38839.507812 39797.757812
82270.367188 38804.414062 39517.992188
82598.070312 38789.933594 38962.078125
82442.664062 38791.304688 39233.035156
82746.273438 38822.960938 38697.558594
73198.335938 39000.121094 45390.664062
73471.648438 39030.898438 45150.230469
73758.250000 39046.546875 44918.917969
74049.921875 39054.488281 44700.375000
74335.726562 39084.480469 44490.703125
74578.406250 39147.214844 44320.839844
74858.804688 39045.437500 44168.609375
75184.359375 39102.511719 43984.718750
75477.390625 39143.695312 43847.812500
75771.664062 39181.691406 43731.320312
76108.351562 39228.988281 43616.097656
76423.453125 39145.812500 43464.257812
76717.812500 39067.371094 43328.804688
77028.648438 39291.441406 43353.601562
77293.406250 39108.000000 43177.957031
77650.226562 39189.562500 43146.386719
78011.585938 39079.421875 42979.179688
79398.773438 39101.285156 42541.316406
79736.335938 39147.660156 42440.414062
80037.148438 39081.371094 42261.054688
80291.078125 39003.355469 42093.683594
80492.140625 38890.046875 41923.714844
80749.468750 38919.757812 41775.433594
81033.820312 38964.207031 41560.093750
81282.031250 39020.535156 41309.910156
81492.296875 39083.437500 41037.558594
82144.203125 39131.539062 39957.785156
82274.210938 39053.218750 39700.164062
82594.031250 38994.960938 39150.410156
82476.015625 39104.562500 39439.015625
82895.296875 39098.746094 38658.425781
82741.250000 39044.878906 38929.031250
73192.656250 39278.398438 45148.671875
73494.843750 39363.875000 44923.425781
73833.929688 39347.089844 44735.562500
74137.468750 39367.117188 44559.585938
74429.976562 39402.027344 44393.816406
74724.265625 39408.570312 44242.148438
75032.117188 39403.847656 44098.195312
75338.226562 39419.585938 43969.500000
75635.851562 39443.312500 43865.019531
75933.117188 39478.406250 43776.933594
76186.992188 39528.964844 43717.695312
76406.359375 39446.167969 43608.750000
76691.640625 39369.253906 43484.183594
77385.921875 39378.488281 43331.699219
78354.078125 59801.925781 44132.320312
77990.515625 39365.980469 43216.472656
77703.515625 39490.164062 43367.789062
78243.054688 39285.886719 43092.484375
78483.179688 39353.171875 43092.570312
79163.367188 20303.935547 34249.589844
79558.570312 39316.195312 42656.437500
79810.937500 39431.144531 42635.636719
80595.531250 39184.703125 42041.417969
80940.632812 39222.226562 41809.140625
81220.507812 39274.171875 41557.156250
81659.851562 39388.066406 40974.980469
81460.398438 39341.734375 41275.992188
82392.343750 39371.816406 39794.761719
82708.109375 39245.328125 39187.125000
82655.968750 39463.628906 39484.066406
82891.054688 39320.476562 38916.859375
73200.976562 39583.132812 44990.613281
73417.617188 39670.199219 44862.464844
73664.320312 39638.742188 44762.707031
73963.492188 39648.835938 44628.925781
74272.937500 39685.941406 44491.195312
74588.726562 39712.144531 44353.277344
74909.812500 39715.136719 44222.160156
75220.015625 39701.328125 44101.199219
75512.523438 39695.742188 44002.468750
75808.710938 39718.148438 43928.128906
76109.078125 39741.355469 43859.824219
76392.429688 39715.960938 43769.996094
76658.984375 39640.390625 43655.277344
76938.273438 39574.988281 43552.214844
77195.921875 39535.824219 43476.808594
78328.382812 39524.707031 43290.281250
79586.023438 39568.992188 42865.132812
79881.921875 39650.238281 42785.089844
80072.046875 39564.320312 42613.738281
80861.039062 39497.484375 42072.156250
81155.328125 39533.195312 41821.585938
81415.023438 39602.375000 41546.460938
81667.671875 39704.199219 41226.894531
71498.460938 43985.992188 14880.886719
82874.640625 39544.453125 39188.785156
83213.296875 39774.242188 38702.093750
83030.921875 39582.437500 38912.503906
73256.937500 39880.191406 44906.843750
73525.960938 39907.570312 44800.738281
66535.101562 39379.136719 23993.175781
73811.703125 39918.699219 44698.429688
74111.789062 39947.886719 44592.140625
74447.312500 40029.562500 44490.945312
74782.539062 40003.222656 44362.941406
75138.921875 40024.785156 44263.765625
75407.460938 39915.339844 44132.023438
75675.750000 39950.792969 44085.332031
75990.835938 39974.320312 44031.890625
76344.273438 39996.855469 43978.324219
78552.570312 39721.628906 43427.351562
79470.640625 39799.214844 43131.468750
79818.718750 39871.730469 43006.886719
80580.523438 39792.195312 42508.437500
80817.281250 39769.136719 42320.531250
81095.343750 39789.367188 42087.625000
81356.359375 39848.050781 41829.917969
73383.664062 40167.769531 44868.812500
73676.164062 40182.039062 44777.175781
73969.890625 40193.378906 44689.117188
74231.023438 40205.167969 44611.726562
74682.148438 40232.546875 44483.406250
74937.765625 40275.539062 44436.511719
75228.484375 40347.382812 44410.804688
75492.968750 40186.058594 44263.121094
75840.570312 40198.710938 44208.425781
76162.054688 40217.253906 44171.980469
76432.093750 40243.625000 44156.003906
78051.617188 40080.390625 43856.601562
79367.351562 40005.878906 43366.394531
81041.031250 40035.941406 42340.597656
73244.796875 40441.769531 44957.308594
73546.687500 40448.917969 44873.511719
73849.867188 40451.390625 44794.757812
74153.257812 40446.355469 44716.773438
74475.484375 40394.683594 44615.347656
72432.328125 28100.728516 18150.423828
74763.515625 40437.339844 44560.781250
75026.968750 40582.105469 44595.777344
75458.562500 40431.730469 44421.863281
75704.328125 40422.062500 44384.167969
76020.148438 40432.546875 44356.304688
77936.976562 40272.695312 44039.714844
78262.023438 40240.644531 43958.972656
78568.578125 40181.218750 43835.125000
81425.804688 40604.343750 42353.253906
73418.796875 40719.199219 44986.851562
73725.234375 40712.199219 44916.523438
74033.312500 40709.386719 44853.027344
74354.750000 40703.011719 44789.902344
75953.156250 17646.798828 34242.363281
74687.265625 40675.960938 44713.289062
75316.921875 40567.148438 44536.238281
75558.164062 40629.828125 44552.707031
77225.984375 40504.894531 44320.320312
77559.765625 40570.929688 44348.683594
77843.140625 40519.250000 44263.656250
78183.609375 40489.988281 44172.671875
78514.179688 40442.296875 44052.207031
78827.093750 40397.125000 43913.246094
79091.359375 40369.074219 43785.714844
79358.929688 40492.554688 43735.847656
80251.257812 40512.777344 43251.343750
80478.859375 40571.832031 43159.464844
80683.554688 40530.621094 42999.082031
81142.562500 40789.953125 42808.933594
81376.218750 40827.914062 42581.714844
73293.820312 40990.867188 45111.613281
73600.531250 40967.625000 45047.222656
73900.250000 40956.683594 44993.753906
74207.968750 40965.609375 44954.371094
74563.375000 40994.640625 44926.972656
69979.867188 42960.531250 10199.955078
74934.578125 40906.007812 44825.421875
75319.078125 40830.226562 44731.285156
75697.476562 40868.207031 44731.433594
77429.945312 40781.652344 44538.957031
77758.507812 40758.839844 44472.722656
78076.453125 40742.015625 44387.808594
78454.835938 40756.375000 44281.878906
78750.562500 40641.871094 44105.414062
79093.953125 40708.855469 43993.546875
80892.351562 40772.335938 43014.582031
81585.742188 40882.449219 42349.171875
81756.687500 40938.410156 42147.855469
83373.914062 40941.464844 39420.675781
83450.554688 40918.445312 39156.140625
73178.273438 41269.656250 45241.796875
73487.500000 41222.300781 45179.921875
73772.359375 41187.128906 45128.589844
74052.101562 41186.519531 45098.300781
74339.390625 41222.035156 45093.605469
74587.914062 41265.625000 45102.785156
74839.328125 41183.183594 45029.707031
75178.765625 41131.750000 44971.867188
75532.914062 41099.105469 44928.582031
77687.429688 41016.777344 44673.976562
77960.921875 40953.683594 44567.265625
78251.789062 41007.792969 44510.640625
78899.632812 14803.087891 34367.281250
78545.781250 41058.128906 44429.339844
78822.367188 40953.589844 44253.585938
81084.132812 41042.722656 43031.207031
81328.695312 41070.546875 42806.500000
81549.242188 41107.367188 42567.132812
81745.789062 41141.984375 42327.914062
82125.265625 41127.613281 41801.406250
81926.179688 41141.621094 42078.339844
82336.890625 41118.996094 41518.894531
82867.421875 41119.039062 40790.339844
83181.609375 41157.316406 40187.835938
83044.773438 41150.277344 40497.167969
83374.781250 41107.722656 39567.726562
83309.109375 41181.394531 39841.742188
83457.968750 41165.667969 39335.511719
73094.312500 41520.308594 45353.218750
73667.414062 41391.363281 45243.960938
67956.945312 25840.156250 21711.556641
73916.984375 41398.089844 45229.828125
74171.187500 41386.234375 45208.191406
74462.789062 41518.367188 45280.550781
74751.531250 41390.406250 45183.671875
75037.914062 41380.425781 45168.898438
76821.453125 41387.226562 45087.593750
93608.218750 41632.214844 23863.142578
77617.242188 41305.480469 44889.113281
78031.156250 41274.410156 44740.996094
78426.359375 41290.417969 44598.726562
78747.320312 41291.039062 44456.851562
79657.906250 41291.515625 44012.968750
80178.523438 41322.519531 43775.820312
81006.171875 41306.937500 43261.828125
81711.437500 41635.140625 42777.531250
82135.937500 41395.890625 42035.378906
82879.867188 41354.972656 41028.691406
83222.789062 41467.757812 40416.632812
83309.304688 41404.167969 40085.382812
83049.656250 41383.628906 40746.492188
63722.683594 18562.546875 43696.882812
83550.226562 41451.722656 39251.234375
83441.093750 41351.992188 39560.742188
73206.882812 41776.886719 45451.902344
74088.929688 41607.855469 45343.121094
74849.867188 41594.285156 45330.828125
76261.398438 41660.300781 45330.042969
76653.984375 41662.984375 45295.878906
77023.046875 41648.320312 45241.074219
77309.695312 41664.554688 45200.957031
77553.617188 41584.574219 45088.226562
77857.257812 41547.460938 44967.792969
78110.242188 41579.832031 44886.003906
78332.890625 41542.183594 44765.628906
79823.445312 41562.082031 44060.566406
80117.695312 41560.371094 43925.039062
80383.093750 41511.636719 43772.910156
89480.523438 45577.523438 13440.360352
89291.265625 45767.675781 13402.282227
81214.835938 41605.660156 43276.308594
82139.734375 41647.121094 42270.824219
82350.531250 41642.765625 42023.085938
82870.093750 41792.808594 41542.589844
83041.296875 41564.140625 40978.871094
83416.945312 41525.679688 39832.925781
83658.593750 41795.023438 39164.062500
83531.429688 41662.621094 39524.691406
73420.132812 42087.316406 45583.726562
67165.882812 64634.253906 47470.132812
67081.429688 64384.808594 47470.003906
73682.679688 41897.898438 45498.730469
73953.187500 41869.832031 45489.000000
74287.804688 41845.738281 45483.152344
75715.937500 41877.851562 45521.773438
76073.687500 41916.687500 45519.925781
76484.328125 41985.425781 45514.554688
76880.476562 41924.472656 45424.972656
77210.046875 41887.820312 45346.226562
77499.914062 41846.183594 45252.093750
77776.523438 41803.410156 45137.511719
78041.992188 41786.585938 45021.550781
78286.195312 41778.957031 44903.949219
63855.042969 41620.203125 11911.021484
80050.515625 41882.921875 44111.144531
80357.648438 41795.167969 43932.480469
80891.421875 41934.347656 43732.500000
81172.835938 41892.128906 43509.140625
81447.734375 41887.046875 43268.253906
81698.187500 41892.285156 43016.640625
81930.039062 41897.281250 42761.566406
82153.398438 41897.093750 42507.863281
82375.273438 41889.746094 42253.089844
64385.812500 63961.503906 47455.562500
83811.546875 41720.929688 38612.648438
83732.679688 41771.859375 38881.468750
73164.921875 42310.917969 45666.523438
69666.945312 33351.804688 12872.640625
73796.132812 42110.972656 45606.585938
63262.382813 61823.222656 46828.222656
74115.289062 42125.574219 45628.750000
75535.015625 42110.199219 45678.804688
75875.523438 42147.675781 45680.507812
76212.757812 42207.886719 45679.292969
76513.195312 42322.980469 45695.812500
76789.562500 42217.171875 45593.820312
77104.687500 42162.093750 45503.558594
75148.640625 14936.800781 34240.203125
75380.921875 14964.953125 34240.523438
77412.453125 42114.460938 45404.492188
77703.398438 42070.925781 45291.117188
77978.765625 42037.507812 45165.742188
79583.929688 42115.765625 44412.183594
79883.406250 42142.425781 44303.058594
80135.429688 42180.042969 44225.343750
80349.203125 42087.769531 44092.917969
80617.812500 42007.507812 43927.179688
81156.734375 42171.777344 43730.671875
81430.273438 42149.113281 43503.828125
81691.562500 42143.582031 43259.593750
81936.804688 42143.269531 43007.296875
82171.054688 42142.519531 42754.757812
65561.171875 32399.244141 23238.710938
73390.125000 42398.640625 45710.644531
73658.671875 42355.187500 45709.230469
75033.968750 42379.351562 45819.578125
75371.476562 42352.007812 45817.484375
64476.367188 64271.503906 47460.953125
75692.617188 42377.488281 45819.476562
76023.898438 42432.648438 45816.320312
76305.437500 42458.687500 45794.621094
76540.242188 42603.546875 45817.140625
76743.203125 42465.898438 45720.207031
77004.507812 42446.050781 45652.105469
77312.546875 42401.792969 45553.429688
77616.554688 42356.871094 45439.265625
77911.453125 42317.109375 45308.941406
79462.296875 42365.445312 44575.718750
68465.593750 35213.363281 10397.750000
79771.054688 42401.527344 44473.082031
80065.601562 42405.628906 44373.695312
80337.382812 42359.972656 44255.574219
80604.617188 42286.964844 44108.722656
80879.796875 42219.625000 43933.332031
81426.796875 42398.429688 43741.437500
81692.921875 42383.546875 43508.203125
81947.000000 42378.437500 43262.273438
82189.960938 42377.453125 43012.277344
81029.585938 17820.248047 45268.406250
80335.109375 52232.066406 16190.484375
74893.210938 42719.746094 45958.117188
75253.500000 42623.171875 45940.601562
75527.445312 42567.636719 45919.121094
75819.960938 42696.242188 45951.097656
76229.507812 42732.789062 45917.332031
76861.406250 42736.007812 45799.664062
77204.718750 42697.824219 45695.925781
77518.148438 42656.429688 45582.824219
67297.460938 64890.234375 47470.410156
79319.242188 42611.390625 44749.898438
66041.000000 37773.601562 10202.214844
79645.351562 42648.046875 44642.066406
79978.085938 42692.257812 44567.640625
80297.437500 42622.929688 44439.765625
81151.796875 42430.894531 43954.410156
81159.406250 42677.875000 44190.089844
81437.789062 42635.652344 43986.863281
81705.226562 42612.816406 43764.230469
81982.421875 42818.636719 43794.312500
82673.320312 42613.996094 42778.265625
82706.945312 42847.867188 43041.546875
82855.054688 42623.296875 42551.335938
66115.953125 65666.609375 42679.222656
73365.500000 42888.113281 45877.960938
74921.953125 43088.050781 46085.843750
75201.992188 42931.812500 46052.734375
75499.367188 42820.445312 46018.074219
75740.117188 43016.519531 46072.707031
76016.906250 42958.640625 46027.601562
76303.500000 43091.328125 46028.515625
76572.843750 42903.246094 45921.718750
76837.171875 43034.816406 45909.312500
77106.890625 42998.199219 45825.976562
81017.609375 17571.457031 44384.710938
77417.210938 42956.644531 45716.871094
79177.632812 42877.738281 44931.062500
79528.179688 42899.335938 44815.441406
79795.890625 42880.789062 44723.976562
80010.882812 42960.574219 44728.593750
81179.890625 42926.851562 44441.152344
81460.640625 42865.234375 44239.488281
81733.859375 42840.316406 44026.863281
81750.562500 43053.937500 44286.078125
82209.960938 42979.105469 43799.371094
82730.828125 43095.851562 43329.730469
82916.976562 42850.382812 42752.152344
82806.781250 19198.228516 43031.015625
75457.242188 43110.496094 46113.195312
64961.179688 42415.003906 10214.346680
66749.679688 41670.519531 10203.684570
76636.539062 43223.570312 46008.781250
76729.015625 43535.171875 46073.054688
76985.585938 43314.453125 45953.085938
77321.937500 43253.230469 45837.386719
78691.609375 43172.476562 45251.523438
79044.164062 43164.878906 45109.558594
79404.210938 43171.484375 44994.687500
79813.289062 43181.183594 44911.585938
81322.242188 17824.708984 43747.515625
81182.734375 17594.253906 43589.898438
80209.390625 43146.937500 44836.601562
80868.843750 43004.566406 44614.925781
81493.687500 43093.351562 44486.464844
82317.492188 43143.265625 43904.617188
82323.890625 43318.308594 44094.144531
82461.343750 43066.304688 43636.027344
82960.703125 43114.703125 43019.628906
79471.164062 15984.134766 43240.144531
75979.304688 43272.898438 46123.449219
76362.273438 43468.843750 46122.886719
67447.796875 27206.363281 24573.097656
63519.515625 30828.197266 18624.316406
78654.968750 43447.449219 45364.777344
78928.695312 43444.191406 45263.601562
79280.960938 43483.320312 45180.332031
79579.054688 43405.195312 45077.039062
79833.640625 43546.230469 45132.335938
80149.515625 43431.000000 45045.039062
80490.906250 43352.148438 44967.992188
80837.835938 43281.093750 44867.191406
81221.351562 43218.683594 44718.117188
81547.968750 43296.300781 44674.027344
81764.609375 43262.597656 44513.644531
64255.511719 30516.615234 18642.802734
82736.976562 43336.371094 43618.750000
82517.687500 43309.949219 43876.601562
83002.437500 43416.703125 43309.191406
83189.687500 43395.261719 42950.398438
83341.460938 43414.949219 42630.976562
83470.906250 43473.238281 42327.371094
83567.570312 43550.308594 42074.710938
78502.476562 43650.429688 45496.960938
78819.710938 43688.550781 45396.042969
79084.625000 43684.625000 45318.191406
73512.281250 16882.781250 34240.851562
73380.273438 17187.000000 34240.886719
79566.687500 43636.851562 45207.988281
80117.007812 43740.136719 45243.722656
80439.148438 43644.125000 45177.343750
80776.468750 43571.550781 45099.910156
81126.257812 43515.414062 44991.296875
81463.062500 43491.113281 44867.136719
81749.960938 43482.949219 44719.734375
82026.765625 43488.546875 44514.054688
82350.554688 43597.109375 44305.140625
82517.335938 43496.398438 44066.175781
82941.679688 43626.050781 43630.746094
82716.226562 43552.007812 43877.335938
83240.554688 43673.703125 43151.945312
83130.500000 43720.820312 43413.039062
83480.031250 43707.644531 42561.792969
83364.851562 43667.187500 42857.914062
67446.210938 28502.296875 47465.601562
83579.101562 43757.742188 42258.386719
79234.156250 15071.470703 41900.562500
74296.304688 46898.050781 15603.012695
73702.601562 43883.164062 46171.468750
76023.515625 43923.316406 46278.886719
78373.046875 43937.675781 45641.460938
78711.187500 43950.343750 45533.828125
64855.085937 29573.867188 20897.923828
79027.835938 43931.941406 45441.093750
79360.445312 43851.777344 45346.851562
80389.625000 43941.933594 45355.011719
80711.039062 43873.101562 45294.250000
81049.351562 43823.550781 45204.410156
70998.312500 16106.149414 34392.433594
81389.203125 43779.644531 45074.609375
81696.132812 43734.777344 44912.734375
81933.593750 43702.539062 44743.671875
82204.046875 43880.152344 44614.656250
82526.515625 43970.460938 44370.539062
82642.421875 43748.714844 44119.218750
82886.132812 43844.015625 43888.746094
83103.953125 43926.851562 43627.027344
83380.820312 43883.781250 43035.878906
83487.828125 43957.882812 42790.218750
83294.140625 43984.656250 43316.273438
78329.625000 46341.320312 10211.708008
73438.851562 44052.937500 46171.109375
73661.546875 44231.429688 46242.121094
74648.125000 44296.625000 46400.789062
75009.015625 44185.417969 46392.000000
75358.492188 44110.320312 46376.558594
79004.335938 15128.108398 42101.921875
75737.945312 44066.164062 46346.386719
76026.343750 44169.253906 46344.460938
78272.375000 44232.457031 45770.082031
78583.351562 44221.511719 45671.351562
83526.695312 19356.312500 41744.707031
78941.078125 44263.953125 45601.679688
71156.968750 15926.996094 34371.753906
79233.812500 44132.117188 45494.375000
64853.964844 59482.523438 47259.359375
79539.734375 44183.226562 45491.640625
80312.328125 44235.921875 45498.781250
80642.164062 44181.855469 45450.019531
80962.929688 44125.085938 45372.589844
81319.367188 44136.742188 45261.328125
81652.257812 44043.402344 45074.957031
81934.882812 43975.292969 44877.050781
78382.937500 15307.071289 43028.816406
82797.953125 44074.484375 44140.925781
83042.625000 44172.242188 43880.304688
83248.343750 44238.390625 43591.496094
83458.914062 44150.250000 43049.683594
83407.265625 44315.039062 43317.703125
73298.882812 44367.246094 46200.074219
83681.367188 52950.816406 15157.028320
73953.140625 44474.812500 46348.792969
74284.703125 44230.164062 46333.847656
74926.460938 44458.605469 46491.406250
75228.898438 44423.277344 46494.593750
75578.218750 44378.480469 46469.929688
75905.375000 44374.972656 46433.460938
76203.218750 44377.878906 46383.285156
67504.601562 27398.431641 23921.326172
67781.273438 15698.509766 46258.945312
67918.312500 15872.716797 46258.015625
68026.453125 15540.016602 46258.890625
78458.070312 44478.644531 45795.691406
78724.992188 44471.968750 45727.625000
78999.085938 44713.898438 45772.226562
79288.914062 44420.453125 45618.140625
80220.781250 44493.609375 45609.835938
80565.664062 44528.835938 45588.859375
80899.351562 44418.203125 45496.296875
81146.062500 44353.679688 45409.933594
81384.335938 44495.144531 45356.773438
81635.421875 44378.781250 45196.800781
81907.406250 44294.292969 45011.726562
82941.601562 44423.671875 44146.089844
83523.734375 44420.871094 43086.878906
73318.062500 44795.937500 46267.253906
73587.828125 44539.664062 46289.761719
89185.085938 56083.253906 21323.886719
74350.820312 44567.234375 46451.472656
74694.460938 44650.199219 46544.121094
75052.093750 44741.167969 46632.246094
75442.296875 44681.605469 46616.804688
75785.460938 44641.406250 46569.621094
76095.000000 44631.902344 46507.566406
76395.445312 44636.445312 46433.265625
76706.015625 44659.933594 46352.027344
70559.023438 43486.687500 14353.409180
79385.335938 44707.839844 45728.988281
80314.218750 44776.136719 45704.250000
66781.648438 42304.332031 10200.022461
80908.921875 44728.558594 45588.203125
81153.382812 44607.679688 45481.980469
81395.460938 44795.972656 45438.464844
81644.054688 44703.753906 45287.027344
81891.257812 44608.164062 45114.015625
84429.382812 45530.996094 10207.733398
83061.351562 44808.628906 44184.343750
83311.312500 44937.171875 43894.644531
83616.984375 44688.453125 43010.144531
81855.101562 26581.605469 42102.589844
73714.054688 44829.917969 46377.535156
74089.460938 44863.078125 46487.832031
85238.000000 32012.152344 11245.225586
74444.078125 44900.652344 46594.515625
74755.742188 44949.550781 46688.671875
75003.234375 45038.527344 46775.332031
75315.398438 45015.414062 46790.835938
64396.378906 63444.882812 47446.242188
75678.281250 44930.789062 46733.089844
65796.273438 31475.150391 16992.351562
75993.289062 44888.898438 46659.007812
76276.648438 44881.542969 46575.929688
76562.460938 44909.621094 46488.773438
79341.304688 45012.398438 45845.167969
81165.476562 44856.449219 45549.027344
70393.867188 69665.554688 44834.507812
81660.359375 45034.980469 45391.843750
81892.187500 44901.253906 45205.046875
82122.812500 44821.648438 45028.621094
82881.656250 44903.753906 44439.566406
83584.906250 44924.339844 43301.960938
73192.835938 45131.078125 46271.839844
73495.835938 45135.812500 46368.406250
73849.304688 45180.582031 46494.875000
74241.156250 45243.289062 46649.730469
74554.101562 45149.871094 46723.257812
74804.968750 45237.789062 46820.816406
75095.617188 45271.238281 46889.976562
75340.406250 45282.960938 46925.367188
75583.382812 45212.066406 46887.390625
75923.453125 45199.886719 46830.312500
65798.203125 31674.150391 16799.634766
76176.484375 45085.675781 46711.882812
76427.296875 45142.488281 46647.179688
87866.523438 36760.144531 11718.541016
87713.820312 36870.621094 11399.116211
72434.023438 19515.751953 34251.062500
72340.960938 19286.187500 34248.457031
80998.039062 45075.222656 45672.042969
81348.304688 45073.074219 45551.429688
81921.500000 45135.121094 45285.753906
82120.859375 45086.234375 45137.316406
82311.500000 45011.750000 44972.761719
82546.687500 45073.035156 44822.277344
82834.882812 45151.078125 44603.945312
83024.453125 45075.613281 44367.113281
83397.843750 45218.148438 43925.281250
83517.062500 45138.738281 43633.816406
83220.375000 45147.531250 44155.320312
84255.500000 45167.207031 40732.015625
73613.125000 45475.226562 46460.175781
73953.890625 45551.050781 46612.496094
94567.085938 46038.914062 21889.259766
80369.515625 57188.894531 26862.900391
74548.796875 45431.746094 46815.542969
75221.484375 45476.191406 46979.148438
74897.671875 45601.621094 46949.511719
75479.437500 45472.167969 46991.246094
75740.289062 45424.351562 46959.847656
76015.804688 45574.136719 46959.183594
67357.578125 38156.593750 10206.480469
76243.640625 45341.078125 46808.761719
78810.476562 45743.726562 46136.570312
81843.281250 45313.382812 45431.882812
82104.679688 45333.980469 45287.605469
82389.304688 45296.425781 45067.093750
82692.023438 45356.750000 44853.925781
82912.875000 45428.699219 44682.625000
83109.914062 45379.277344 44424.800781
83648.898438 45466.828125 43571.144531
83517.812500 45393.656250 43815.292969
83386.156250 45482.867188 44096.714844
84347.718750 45465.414062 40576.929688
84279.468750 45448.855469 40836.976562
84423.937500 45552.304688 40321.855469
94547.125000 46131.402344 22182.183594
74280.585938 45641.136719 46771.832031
74552.820312 45721.546875 46893.253906
81743.367188 25518.046875 46258.101562
75302.398438 45772.406250 47041.203125
75681.765625 45701.847656 47036.226562
76322.054688 45607.414062 46895.156250
67482.710938 38616.472656 10207.749023
77427.429688 45621.906250 46419.859375
77672.015625 45769.753906 46387.101562
76453.515625 63287.964844 46139.910156
76727.460938 63039.843750 46185.289062
76649.703125 63291.601562 46417.464844
81193.140625 45654.132812 45855.835938
81779.484375 45515.167969 45591.570312
82026.468750 45554.199219 45489.464844
82343.906250 45622.156250 45329.515625
82619.632812 45586.656250 45074.257812
82851.554688 45613.210938 44867.339844
83070.312500 45661.082031 44649.238281
74754.523438 15367.271484 34239.128906
84398.359375 45762.984375 40513.148438
84326.578125 45696.531250 40790.562500
84252.367188 45611.324219 41058.800781
74048.109375 45927.824219 46718.781250
74377.601562 45968.984375 46869.792969
74700.328125 45960.687500 46973.515625
75002.007812 45952.308594 47033.777344
73071.515625 45254.105469 14442.909180
75262.960938 46192.765625 47079.535156
75597.914062 46031.687500 47086.488281
75953.414062 45963.027344 47060.640625
77418.085938 45890.781250 46535.800781
77698.187500 46075.277344 46506.542969
77955.718750 45933.535156 46363.082031
78545.554688 45933.601562 46235.292969
73840.593750 15478.360352 34239.828125
81385.031250 45865.367188 45918.531250
81653.664062 45952.183594 45905.453125
81905.898438 45784.378906 45715.722656
82184.718750 45782.527344 45569.500000
82636.976562 45853.656250 45261.867188
82803.554688 45796.339844 45050.550781
83916.992188 46056.222656 43255.707031
66260.859375 41155.968750 10202.924805
66146.171875 40951.839844 10202.678711
66430.507812 40883.078125 10204.715820
84427.515625 46059.828125 40438.421875
84365.812500 45989.570312 40736.542969
84301.687500 45910.226562 41020.332031
84233.734375 45835.035156 41313.742188
84486.437500 46132.320312 40122.375000
74190.789062 46279.441406 46821.890625
74540.031250 46278.519531 46951.906250
74884.718750 46245.031250 47035.183594
75592.570312 46328.097656 47102.996094
75814.914062 46244.246094 47101.265625
77439.703125 46207.007812 46675.976562
77989.906250 46252.054688 46488.300781
78260.757812 46094.402344 46348.726562
78571.531250 46262.804688 46347.464844
81403.945312 46168.976562 46049.695312
81718.976562 46213.843750 46025.710938
81944.140625 46096.691406 45903.773438
82188.851562 46011.425781 45739.265625
82445.015625 45970.343750 45529.265625
82696.726562 46096.246094 45395.492188
82894.218750 46076.058594 45150.285156
83373.812500 46301.054688 44619.277344
84387.234375 46291.847656 40671.503906
84336.875000 46215.085938 40975.164062
84285.523438 46113.218750 41233.187500
84234.695312 46141.609375 41570.910156
84433.609375 46369.863281 40363.449219
94018.593750 44036.660156 21399.816406
74036.609375 46616.832031 46781.167969
74370.382812 46604.523438 46911.113281
93921.914062 44227.757812 20998.726562
93690.453125 44163.804688 20809.158203
74763.742188 46621.785156 47014.664062
75088.625000 46484.511719 47067.808594
77483.421875 46532.097656 46810.164062
77731.546875 46391.441406 46647.621094
78020.945312 46571.386719 46636.195312
78293.546875 46428.269531 46484.152344
78632.890625 46620.984375 46491.710938
79207.828125 46878.835938 46471.285156
79606.773438 46544.011719 46269.886719
81035.773438 46599.238281 46198.019531
81288.617188 46466.562500 46159.757812
81622.937500 46503.503906 46141.847656
81950.437500 46388.144531 46041.488281
82210.890625 46284.121094 45893.710938
67492.796875 18238.527344 46264.136719
67745.320312 18256.585938 46263.960938
82402.437500 46195.746094 45731.175781
82620.539062 46265.328125 45592.472656
82851.000000 46335.335938 45390.101562
83074.882812 46416.722656 45144.343750
83298.648438 46531.714844 44875.558594
71244.664062 18898.626953 46252.394531
84089.437500 46295.734375 42766.128906
84021.648438 46260.855469 43053.519531
83985.109375 46427.289062 43345.519531
84356.867188 46520.941406 40905.304688
84390.867188 46597.972656 40600.453125
84310.664062 46455.496094 41268.484375
84342.312500 46737.355469 41085.832031
84449.312500 46814.632812 39993.085938
84421.335938 46690.906250 40299.828125
73713.609375 46705.386719 46639.027344
74510.859375 46974.253906 46966.039062
74845.039062 46966.328125 47030.941406
77530.445312 46863.585938 46923.250000
77771.007812 46706.308594 46788.332031
78047.703125 46887.101562 46785.062500
78307.945312 46750.832031 46642.246094
79515.156250 46838.269531 46380.343750
79819.273438 46798.105469 46306.714844
80125.421875 46762.457031 46255.519531
81352.843750 46802.324219 46226.144531
73783.656250 16822.828125 34240.972656
81942.953125 46695.589844 46142.945312
82225.984375 46580.847656 46011.605469
72529.125000 18964.470703 46255.093750
82497.039062 46476.042969 45812.367188
82766.968750 46539.019531 45609.601562
82990.781250 46635.335938 45392.066406
83206.765625 46752.773438 45141.386719
92801.000000 43007.410156 21560.443359
73165.296875 17874.988281 46256.492188
83519.601562 46667.523438 44576.863281
83897.828125 46452.511719 43642.949219
84162.609375 46565.734375 42684.566406
84108.195312 46592.449219 42999.691406
84363.070312 46821.015625 40824.253906
84382.437500 46904.351562 40537.085938
73628.148438 47068.796875 46642.160156
73943.117188 46964.027344 46771.375000
74209.054688 46864.710938 46870.546875
72230.945312 17013.957031 46256.796875
75849.445312 49967.324219 18607.056641
89179.875000 55256.148438 20332.943359
77814.468750 46989.636719 46896.191406
78296.664062 47025.203125 46783.601562
73651.570312 47386.218750 18393.912109
78568.132812 46962.027344 46682.636719
78887.546875 46912.515625 46571.800781
79124.234375 47172.269531 46634.734375
92078.703125 41955.808594 17500.882812
79429.406250 47126.015625 46517.480469
79723.335938 47089.269531 46415.800781
80021.796875 47058.843750 46337.156250
80327.687500 47031.917969 46284.800781
80651.500000 47000.101562 46259.691406
81690.117188 46823.113281 46215.101562
82217.328125 46891.703125 46100.820312
82481.742188 46780.921875 45942.644531
71619.429688 17449.923828 46256.363281
82682.007812 46713.132812 45777.109375
