1146
41495.410156 -164620.140625 181962.750000
36726.472656 -163648.218750 182203.984375
24464.095703 -164889.718750 183003.906250
29747.097656 -163154.250000 183271.406250
24914.742188 -164503.984375 183440.437500
32760.367188 -163061.187500 183150.312500
19421.593750 -166842.250000 183869.781250
29793.035156 -162801.359375 184163.609375
24749.123047 -164065.890625 184578.203125
20447.121094 -164904.406250 185757.406250
25999.556641 -163312.062500 185443.171875
20348.134766 -164794.593750 186047.234375
38527.531250 -163061.593750 185583.718750
10105.112305 -171441.812500 186334.265625
12043.537109 -169294.625000 186487.734375
24485.583984 -163326.937500 186201.281250
24562.281250 -163455.015625 185920.390625
33510.476562 -161799.812500 186729.750000
30809.113281 -161596.578125 187037.281250
35120.910156 -161723.062500 187772.546875
45441.648438 -164870.703125 187989.312500
38743.542969 -162583.531250 187925.109375
38663.550781 -162634.109375 187616.156250
4307.112793 -169529.656250 188349.781250
45155.085938 -164734.609375 188416.265625
2860.914062 -169859.546875 188847.437500
8044.048828 -166550.687500 188697.125000
28306.115234 -161374.718750 188594.109375
28308.599609 -161268.343750 188924.531250
26212.904297 -161564.937500 189212.187500
1635.923950 -169133.875000 189574.796875
3834.243896 -165998.515625 190197.468750
20775.736328 -162413.156250 190481.875000
9228.102539 -164560.453125 190861.703125
32157.248047 -160573.406250 190620.015625
32472.380859 -160519.609375 190957.500000
36423.863281 -161373.593750 192118.203125
22080.826172 -161300.453125 192501.515625
44217.917969 -164143.031250 192621.796875
43953.273438 -164027.812500 192346.937500
36331.441406 -161015.796875 193638.578125
36337.664062 -161109.609375 193269.812500
41785.914062 -163103.171875 193742.968750
40708.519531 -162588.156250 194506.640625
21914.945312 -160918.937500 193991.500000
21928.814453 -160832.843750 194288.718750
42389.695312 -163331.578125 194573.015625
42628.316406 -163418.265625 194913.531250
37139.414062 -160877.703125 194959.921875
38967.382812 -161532.203125 195252.671875
38667.488281 -161484.687500 194881.250000
23127.808594 -160029.968750 196504.203125
8549.465820 -161926.296875 197175.796875
31809.765625 -158999.125000 197346.656250
31551.257812 -159060.203125 197066.296875
9780.481445 -161698.531250 198043.703125
34269.160156 -158905.546875 198884.468750
9204.396484 -161508.093750 199213.000000
38427.804688 -159900.406250 199105.312500
33180.933594 -158672.093750 199241.890625
38971.941406 -160040.000000 199168.187500
27969.097656 -158589.468750 199447.078125
29055.388672 -158330.171875 200159.546875
23224.072266 -159344.859375 200031.609375
23126.773438 -159315.015625 200445.843750
-5771.425781 -173208.734375 200980.421875
18861.296875 -159869.781250 200328.984375
-5926.019043 -175775.890625 201455.421875
-5930.020996 -175851.671875 201689.671875
36697.261719 -158953.437500 201632.390625
24578.496094 -158917.046875 201840.578125
33799.304688 -158322.031250 202005.562500
18604.607422 -159722.890625 202222.187500
18856.515625 -159671.093750 202504.281250
32008.949219 -158192.265625 202299.921875
23860.996094 -158842.312500 203974.687500
6249.855957 -161770.281250 204110.671875
6451.394043 -161758.921875 204279.750000
35861.742188 -158315.859375 204382.562500
30573.990234 -157848.765625 204997.984375
-3296.537109 -168700.531250 205250.953125
-74.219002 -165633.437500 206111.093750
836.168030 -165038.296875 206243.218750
781.541992 -165213.406250 206470.593750
12879.831055 -160704.109375 206373.921875
26518.109375 -158394.968750 205877.718750
10148.369141 -161260.453125 206747.484375
10533.405273 -161170.421875 206752.562500
24682.492188 -158875.390625 206993.718750
-397.972992 -166330.937500 206992.734375
9869.756836 -161398.781250 207084.546875
9044.495117 -161710.171875 207452.546875
22991.033203 -159158.734375 207052.062500
23376.570312 -159118.390625 207399.812500
-1157.704956 -167082.812500 207947.500000
10414.593750 -161397.906250 207639.828125
10701.523438 -161359.953125 207766.875000
10527.637695 -161449.218750 207980.968750
11884.053711 -161376.046875 209400.890625
25055.859375 -158952.421875 209276.843750
25379.386719 -158914.906250 209568.625000
31999.404297 -158048.765625 209610.156250
6113.115234 -181686.046875 210994.796875
15881.824219 -161006.203125 210971.718750
10491.039062 -162226.000000 211198.718750
16001.912109 -161387.343750 212125.031250
3971.582031 -179647.921875 212335.875000
3881.415039 -179774.453125 212057.437500
8517.111328 -163261.687500 212262.984375
19942.232422 -160610.500000 212259.593750
20151.892578 -160638.890625 212466.843750
25893.685547 -159452.031250 212620.234375
4392.228027 -165265.156250 213041.296875
28844.152344 -158892.640625 213010.843750
12770.649414 -162447.875000 213122.343750
5514.293945 -179319.921875 214014.812500
9541.975586 -163623.984375 213591.812500
7337.313965 -180767.625000 214194.812500
13562.790039 -163128.328125 214628.953125
35546.718750 -159102.515625 214517.593750
6328.686035 -179028.578125 215137.859375
26899.607422 -160352.250000 215554.953125
27184.023438 -160449.281250 215857.031250
36853.046875 -159752.015625 215860.125000
5896.999023 -166489.703125 216036.828125
16481.716797 -163368.546875 216055.546875
12130.490234 -164909.718750 216586.062500
22713.365234 -162109.109375 216645.671875
7235.852051 -166724.484375 216848.562500
16468.494141 -164095.343750 217014.234375
9238.423828 -166891.531250 217549.500000
14695.050781 -164719.671875 217145.265625
25125.466797 -161781.390625 217340.781250
8438.314453 -177643.578125 217746.156250
15041.916992 -165444.781250 217908.140625
22942.095703 -162479.796875 217318.171875
23184.503906 -162584.437500 217589.484375
7248.824219 -168910.000000 218279.890625
7542.738770 -168800.187500 218300.328125
14294.083984 -166058.875000 218201.843750
20278.759766 -163877.281250 218058.453125
20610.574219 -163963.656250 218302.875000
33598.902344 -160739.250000 218051.593750
9405.874023 -176699.953125 218609.875000
7893.700195 -169402.046875 218638.843750
7857.334961 -169105.218750 218502.921875
19983.654297 -164439.953125 218712.750000
8197.882812 -175277.859375 218771.125000
8449.764648 -169331.968750 218717.484375
27417.486328 -162120.484375 219015.609375
11663.428711 -176826.625000 219246.734375
11338.710938 -176780.734375 219184.750000
6785.750000 -173265.703125 219166.343750
13389.124023 -168143.375000 219488.234375
38058.320312 -161584.203125 219155.312500
14805.158203 -177169.140625 219689.375000
9888.698242 -173758.562500 219732.265625
28653.718750 -162275.750000 219855.828125
27770.250000 -162601.312500 219995.453125
16489.207031 -176522.015625 220425.312500
16778.427734 -176528.671875 220494.250000
13317.690430 -173712.390625 220510.078125
12538.296875 -171086.390625 220423.640625
12165.945312 -171063.000000 220319.062500
17044.341797 -167289.359375 220414.359375
43871.507812 -164105.187500 220661.578125
38578.089844 -162627.875000 220793.796875
15606.014648 -169870.968750 220957.062500
42820.988281 -163931.937500 221055.203125
43205.886719 -163866.531250 220678.281250
38947.050781 -162710.156250 220757.031250
16537.449219 -174066.281250 221196.203125
26212.195312 -164114.234375 221157.031250
39910.500000 -163345.265625 221331.875000
18125.541016 -173617.906250 221679.546875
18518.609375 -169933.031250 221880.468750
39969.339844 -163648.093750 221807.437500
33474.429688 -162765.734375 221569.781250
22277.320312 -167627.671875 222116.062500
43324.222656 -164588.796875 221999.859375
31910.207031 -163167.906250 221909.187500
21227.226562 -174901.375000 222396.921875
23929.363281 -168002.718750 222813.187500
38347.843750 -164081.265625 222923.859375
24895.097656 -168899.812500 223512.093750
37347.796875 -164221.015625 223249.359375
33214.390625 -164886.750000 223715.484375
27255.917969 -167510.531250 223827.546875
27329.636719 -167689.250000 223927.468750
31151.906250 -165442.343750 223867.031250
31008.054688 -165250.656250 223700.796875
25415.734375 -171881.531250 224235.296875
25708.322266 -171678.171875 224340.062500
36232.140625 -165460.046875 224613.203125
27619.759766 -172309.359375 225066.390625
30892.892578 -167968.796875 225281.812500
33337.398438 -167721.906250 225923.453125
47691.957031 -165777.234375 186908.531250
47988.601562 -165893.328125 187181.312500
50779.777344 -167622.984375 191832.546875
47840.195312 -166011.781250 192221.718750
51020.230469 -167959.875000 192817.000000
48406.007812 -166495.656250 193399.281250
45242.882812 -164697.187500 193632.718750
45231.796875 -164716.562500 193867.312500
45397.628906 -164802.546875 193839.062500
52737.078125 -169239.609375 194873.140625
52605.312500 -169273.265625 195291.562500
53815.683594 -170606.781250 197308.578125
53760.613281 -170795.843750 198057.968750
53718.675781 -170870.515625 198368.359375
53289.417969 -171075.390625 199873.531250
51896.632812 -170804.156250 202090.843750
51886.605469 -170881.406250 202428.734375
53915.925781 -173218.609375 204278.343750
51354.390625 -170967.359375 204450.734375
51113.902344 -170762.359375 204266.812500
48335.851562 -169238.578125 205150.984375
51346.296875 -171748.296875 207350.062500
48813.285156 -170754.359375 208030.625000
49058.449219 -170857.031250 207969.015625
49527.074219 -171698.015625 209269.109375
49420.500000 -171791.390625 209546.906250
48744.890625 -172120.265625 210720.109375
38879.000000 -176970.093750 219541.593750
34733.683594 -182089.375000 222307.546875
43339.808594 -163538.937500 199136.984375
44825.734375 -164675.015625 200665.203125
45750.812500 -165723.250000 202048.062500
45740.355469 -165780.281250 201627.546875
47405.242188 -168650.578125 205897.328125
47485.003906 -168863.609375 206196.296875
46939.425781 -168478.890625 208380.234375
47092.136719 -167942.000000 208912.484375
47551.824219 -167815.578125 210604.937500
47705.031250 -167541.796875 210525.609375
46605.832031 -170493.468750 211180.984375
47821.812500 -168000.015625 212203.296875
46175.679688 -170479.296875 213135.765625
48733.277344 -167134.093750 213858.203125
48680.691406 -167326.546875 214026.140625
48903.257812 -166864.687500 214668.828125
47466.167969 -170299.875000 215576.875000
39855.039062 -174867.234375 219600.406250
41282.144531 -180547.859375 224649.343750
39725.082031 -182896.031250 225917.187500
38183.164062 -182233.078125 226127.718750
36236.910156 -183422.328125 224503.000000
37805.382812 -183155.781250 225100.234375
52351.699219 -174229.265625 211878.421875
53835.542969 -173566.234375 205354.531250
51860.109375 -172788.140625 209320.046875
50875.253906 -172707.156250 210610.781250
43561.839844 -176591.484375 218436.921875
43649.179688 -176711.937500 218705.453125
40538.503906 -178902.531250 222357.875000
37790.171875 -186211.656250 224033.546875
48327.937500 -173695.078125 214316.109375
46799.812500 -175271.828125 217004.968750
37643.128906 -179101.765625 223927.062500
37792.097656 -179086.812500 223743.687500
37454.789062 -179697.468750 226036.718750
42053.125000 -179349.156250 223632.484375
44557.460938 -156752.468750 201460.593750
47098.003906 -154726.421875 201711.593750
39874.691406 -158525.296875 203392.234375
38492.675781 -158686.484375 203705.343750
38894.679688 -158375.984375 205112.343750
45690.933594 -155575.515625 208548.703125
44656.906250 -156685.406250 210186.250000
40323.285156 -158142.750000 210468.656250
40677.410156 -158094.734375 210799.406250
48127.187500 -155199.375000 210259.734375
42883.484375 -157645.406250 211188.921875
50116.390625 -155413.718750 210886.125000
41342.960938 -158130.421875 211911.703125
48070.964844 -156713.328125 211996.187500
49918.972656 -158025.625000 212708.937500
50994.859375 -162691.375000 213238.656250
43621.523438 -158376.937500 213522.406250
43438.757812 -158267.734375 213282.875000
49344.730469 -159678.296875 213827.531250
48474.714844 -163798.218750 215566.359375
42266.179688 -160148.078125 215799.640625
46533.730469 -162101.625000 216237.140625
46005.054688 -162589.687500 216871.968750
44369.054688 -162164.718750 217521.078125
44492.566406 -162399.828125 217723.484375
49269.488281 -158231.046875 196805.171875
47402.750000 -159439.531250 197294.281250
48244.914062 -155656.531250 197921.578125
46102.714844 -158840.937500 198141.562500
49133.496094 -161278.765625 198523.562500
45416.386719 -158390.171875 198686.734375
43364.246094 -159487.109375 200238.781250
46410.105469 -161142.625000 200345.640625
42017.429688 -158419.828125 201575.531250
45326.523438 -162202.468750 201602.500000
47002.875000 -162442.718750 202201.250000
54491.585938 -163364.546875 205553.718750
53983.660156 -163504.359375 206131.671875
53896.480469 -163505.718750 206558.984375
49151.066406 -164555.468750 207221.250000
54885.707031 -162614.671875 208147.687500
52581.550781 -163491.296875 210491.250000
49543.539062 -164659.203125 213885.531250
48818.449219 -166306.265625 216657.515625
48780.089844 -165950.234375 216294.703125
42646.992188 -164789.703125 222732.375000
39634.394531 -165526.312500 224673.484375
40689.257812 -166441.468750 225723.500000
36380.371094 -168000.203125 226924.828125
36296.746094 -169755.843750 228192.484375
35057.796875 -172726.203125 228697.359375
35075.117188 -172355.500000 228683.187500
41614.910156 -177794.421875 231252.703125
41391.675781 -177715.437500 231147.406250
38897.277344 -175383.859375 231078.078125
42001.574219 -177158.671875 232387.531250
48343.218750 -166649.687500 220750.093750
48982.031250 -167185.609375 221531.296875
50310.457031 -168145.562500 222613.562500
51414.078125 -168949.609375 224182.140625
51169.562500 -168804.906250 224332.203125
51355.242188 -168935.781250 224508.578125
51102.003906 -168851.375000 224973.265625
51433.972656 -169083.046875 225265.437500
51157.414062 -168939.937500 225288.515625
40710.402344 -167181.234375 226558.296875
49145.062500 -168470.703125 226834.234375
41024.652344 -167700.859375 227246.046875
38960.300781 -168739.609375 228423.171875
45208.687500 -168672.062500 228932.140625
38383.921875 -170332.578125 229603.609375
46432.792969 -168970.234375 229538.062500
46290.578125 -169075.421875 229821.390625
38961.746094 -171653.187500 230869.562500
38987.496094 -171519.515625 230792.343750
45056.679688 -169477.671875 230919.375000
41915.003906 -170380.421875 231250.578125
39003.320312 -173283.562500 231506.703125
40323.324219 -174661.750000 232362.921875
47015.589844 -170451.890625 233572.859375
45163.449219 -172612.578125 234797.421875
47345.859375 -170980.531250 216400.531250
45833.523438 -172754.156250 218295.859375
42198.113281 -173783.156250 219594.000000
44355.246094 -173703.656250 219817.781250
38514.820312 -175349.312500 223052.765625
38656.171875 -175295.421875 222803.812500
38616.585938 -176688.984375 226476.687500
47692.394531 -171775.156250 217611.437500
47968.589844 -171732.578125 217702.015625
48380.703125 -172342.625000 218525.187500
51932.718750 -171816.453125 221014.609375
52105.140625 -171992.578125 221204.453125
44529.535156 -178221.531250 225570.937500
44316.351562 -178344.734375 225797.171875
45228.851562 -179810.875000 228363.546875
45165.003906 -179876.593750 228699.031250
42163.078125 -178799.468750 229268.203125
47300.992188 -180329.437500 229533.921875
44657.199219 -179685.046875 230775.328125
49798.035156 -168149.234375 218823.765625
51339.324219 -170200.718750 220557.968750
53352.656250 -172447.015625 222370.468750
55655.562500 -173599.171875 223559.703125
54588.113281 -171845.765625 223751.484375
55407.011719 -172200.984375 224254.031250
53555.707031 -170478.125000 224694.000000
53320.144531 -170266.062500 224883.328125
-5725.598145 -160341.484375 190234.265625
-3746.864014 -161009.359375 190500.125000
-2264.603027 -161427.515625 190895.765625
-2611.117920 -161288.968750 190806.437500
-1326.233032 -160738.031250 191528.312500
386.838989 -162075.484375 192004.796875
172.475006 -161635.953125 192099.968750
530.929016 -161399.578125 192503.812500
711.262024 -161442.093750 192618.562500
1450.469971 -161029.031250 193586.031250
-344.397003 -159222.921875 193652.359375
-11025.933594 -164150.640625 194821.046875
-1108.163940 -158209.343750 194806.000000
2214.914062 -160541.062500 195284.812500
3819.623047 -161661.937500 195316.203125
4158.486816 -161253.125000 196872.437500
4520.617188 -161300.750000 197416.765625
-11873.978516 -162854.718750 198473.093750
-4758.849121 -156616.562500 198235.718750
-11884.536133 -163059.875000 198703.984375
-6241.683105 -173014.046875 199396.375000
-3867.342041 -157109.984375 199299.625000
-11239.983398 -164022.953125 199955.265625
-11211.141602 -164171.984375 199787.515625
-8863.998047 -167995.812500 200075.625000
78.755997 -159160.859375 200394.625000
470.289001 -159324.187500 200326.812500
-5970.818848 -171419.859375 200885.921875
-3188.843018 -158023.625000 200581.421875
-2868.251953 -157966.250000 200350.859375
-5240.270996 -157714.500000 200723.328125
-339.588013 -159494.265625 201363.531250
-10708.100586 -162873.968750 201603.109375
-397.348999 -159815.640625 201881.093750
-9464.426758 -164571.375000 202017.515625
-9463.837891 -162479.828125 202465.171875
-6954.326172 -162307.453125 203523.296875
-6557.099121 -163107.906250 203636.093750
618.635010 -161583.578125 203432.390625
323.552002 -161514.734375 203439.828125
-3317.199951 -162276.578125 204246.203125
-552.512024 -163053.156250 204381.828125
-1167.708984 -164835.015625 204915.484375
-1099.588989 -165182.703125 205076.390625
-895.562988 -165528.078125 205367.796875
-7334.859863 -178530.125000 203492.234375
-7422.721191 -179370.625000 203772.859375
-7717.261230 -176233.609375 204320.078125
-7504.234863 -176003.265625 204164.687500
-7212.937012 -173759.468750 204941.484375
-6751.222168 -172669.000000 205605.140625
-4358.433105 -182226.765625 207263.562500
-10543.978516 -180712.421875 206910.515625
-10619.178711 -177731.781250 207485.078125
-2848.841064 -181969.546875 208230.343750
-11251.017578 -184016.390625 208858.500000
-3430.343994 -182088.109375 208369.140625
-11783.435547 -177013.140625 209519.125000
-11606.683594 -176874.125000 209349.218750
-8973.348633 -173583.328125 209080.109375
-5341.462891 -169760.234375 210336.468750
-951.640991 -181478.312500 210491.546875
-13461.514648 -178732.921875 211092.421875
-6014.061035 -170338.968750 211308.609375
-3063.760010 -182258.640625 211858.375000
-12501.438477 -176940.406250 212197.375000
-9110.482422 -173203.906250 212954.156250
-6112.724121 -183828.437500 212968.046875
-3728.980957 -169221.234375 213033.921875
-2502.177979 -168798.812500 213623.140625
-8604.817383 -172815.984375 213680.687500
2249.045898 -178893.578125 214343.343750
-5007.111816 -183409.640625 214611.609375
-5656.599121 -170789.671875 214408.390625
4324.166992 -178637.328125 214675.953125
3876.038086 -178585.000000 214728.921875
-6101.774902 -171532.359375 215376.906250
387.837006 -168366.562500 215388.890625
290.877991 -168190.171875 215055.265625
450.584991 -179056.578125 215992.187500
-8001.911133 -173985.781250 215793.796875
-3679.220947 -170709.000000 215554.218750
2163.708008 -178051.875000 216260.312500
-5674.449219 -172800.562500 216372.281250
839.343994 -168822.453125 216199.062500
-751.578979 -180087.531250 216688.765625
-1029.796021 -180376.531250 217205.609375
-891.890991 -180216.531250 217289.828125
-10358.000977 -176715.250000 217259.859375
-492.510986 -179188.812500 217694.250000
3084.655029 -176472.765625 217787.281250
-2548.029053 -180301.203125 217990.328125
-2247.550049 -180251.531250 217915.937500
159.104996 -177473.984375 217890.453125
1515.626953 -171755.125000 218241.796875
-9088.660156 -176453.078125 218321.953125
-1579.687012 -175308.234375 218478.406250
4732.341797 -173678.546875 218815.046875
34122.132812 -170333.250000 170026.109375
31651.117188 -171066.843750 171328.625000
28718.947266 -176897.500000 171202.000000
32438.580078 -170236.046875 171629.859375
28148.720703 -177012.578125 171890.890625
40022.320312 -168047.875000 172279.937500
39875.566406 -167894.234375 172534.843750
26712.789062 -176007.968750 173201.593750
37845.968750 -167411.218750 173701.328125
26240.619141 -177470.421875 173933.250000
41824.453125 -167072.031250 174034.500000
35199.796875 -167436.453125 174489.718750
25699.558594 -178950.921875 175320.500000
43811.472656 -166382.484375 176158.328125
45544.847656 -166594.859375 176359.375000
44079.292969 -166171.109375 177258.000000
25427.621094 -180518.937500 177765.015625
25606.898438 -180741.203125 177653.468750
27874.753906 -183527.015625 178430.218750
29399.031250 -185734.562500 178560.109375
29443.869141 -185788.203125 179627.437500
29270.103516 -185594.125000 179494.765625
44937.835938 -165831.531250 180028.875000
48742.582031 -166586.906250 180033.765625
48560.980469 -166508.781250 180136.750000
26568.216797 -182897.421875 180800.843750
31668.085938 -187083.031250 181315.828125
31668.150391 -187057.031250 181680.734375
46079.632812 -165707.781250 181352.156250
46049.968750 -165660.250000 181661.953125
26321.462891 -183473.859375 183187.937500
48418.640625 -166129.031250 183609.953125
48248.250000 -166060.265625 183748.468750
32873.128906 -187411.843750 184504.906250
31860.857422 -186893.234375 186734.609375
29178.841797 -185889.703125 186933.484375
35499.453125 -188233.578125 187555.468750
33058.417969 -187485.421875 188320.859375
32927.562500 -187390.656250 188048.890625
30200.890625 -186313.140625 188478.968750
29637.507812 -186145.796875 189050.359375
37108.816406 -187726.250000 196358.296875
40330.089844 -188554.609375 197569.390625
37885.261719 -187529.875000 198403.078125
52535.378906 -168230.031250 182193.250000
54357.062500 -168733.921875 184938.359375
54587.808594 -168681.203125 186126.375000
53222.078125 -167979.500000 186705.203125
56153.160156 -169679.265625 187912.765625
57787.613281 -171506.687500 188967.703125
57303.367188 -170772.484375 189954.500000
58575.328125 -172640.921875 190888.796875
59317.882812 -173693.796875 192343.718750
59228.867188 -173601.843750 192073.437500
56293.773438 -170665.828125 192460.875000
59478.921875 -174554.453125 194817.718750
56943.933594 -172999.796875 197114.156250
55760.992188 -172154.562500 197682.562500
57033.250000 -173928.046875 198271.359375
56825.691406 -173749.750000 198378.687500
58855.210938 -178981.437500 198956.515625
58159.496094 -179069.468750 200164.687500
58141.988281 -178682.015625 200143.109375
57243.578125 -178985.515625 201649.140625
41867.136719 -188013.937500 202920.718750
42184.640625 -187839.000000 203983.031250
55238.972656 -182298.671875 204105.437500
55103.625000 -182601.687500 204064.015625
55516.718750 -177217.875000 205068.062500
55367.097656 -178629.312500 205753.171875
49291.589844 -188058.171875 203059.375000
49863.648438 -187782.000000 203365.734375
49559.871094 -187558.609375 204312.140625
47350.546875 -187178.875000 207487.953125
28915.089844 -171146.546875 173148.015625
24967.376953 -173595.312500 174721.265625
31773.105469 -168500.984375 174304.687500
31849.576172 -168341.671875 174500.375000
25165.945312 -172006.234375 175145.343750
25030.498047 -171538.359375 175468.546875
29571.748047 -167881.359375 175983.671875
25878.914062 -169273.328125 176397.468750
34101.929688 -166606.796875 176320.265625
32140.294922 -166712.640625 176645.656250
31753.937500 -166633.562500 176847.531250
36249.312500 -165754.781250 177557.718750
22388.833984 -175255.609375 178359.703125
24714.621094 -180055.625000 178991.890625
22696.123047 -169091.218750 179039.468750
22447.683594 -169108.656250 179326.546875
21802.517578 -169344.953125 179969.828125
20090.615234 -171554.156250 180861.734375
17225.185547 -172533.984375 182936.937500
26526.785156 -184311.421875 184869.718750
10620.581055 -172479.437500 186201.828125
11285.567383 -174308.921875 186516.453125
10172.370117 -175798.125000 187074.468750
5719.709961 -174504.140625 187204.406250
5559.312988 -174122.578125 187188.421875
8684.902344 -176552.750000 187647.390625
10741.902344 -176571.171875 187688.593750
10694.540039 -176834.812500 187866.015625
10431.807617 -176573.406250 187676.953125
28946.558594 -186006.171875 189169.281250
3721.497070 -175711.640625 189236.390625
3818.707031 -175964.546875 189379.578125
13289.441406 -179665.343750 189937.312500
1736.102051 -175654.234375 190049.812500
11636.704102 -179624.468750 190450.812500
30991.378906 -186337.421875 190813.140625
7977.075195 -179538.015625 191555.062500
2792.818115 -177604.859375 191920.250000
12154.090820 -181079.937500 192362.156250
9878.931641 -180699.406250 192789.765625
18906.498047 -183784.406250 193130.375000
19048.363281 -183937.375000 193383.750000
31954.052734 -186326.828125 194454.984375
3405.947021 -179010.968750 194089.234375
27311.138672 -185668.609375 196019.281250
28825.986328 -185597.375000 196379.156250
7094.858887 -180814.984375 196330.906250
26957.210938 -185589.812500 196772.125000
27574.892578 -185514.281250 197157.078125
23329.451172 -185069.296875 197962.078125
7848.313965 -181930.125000 197942.734375
20428.166016 -185392.687500 198076.609375
24887.492188 -185107.234375 198088.546875
7613.542969 -181873.265625 198020.703125
19518.646484 -185330.187500 198600.625000
24799.511719 -185110.218750 198359.593750
6971.748047 -182151.765625 198846.843750
33966.500000 -186200.531250 199289.265625
24406.662109 -185298.906250 199867.140625
30475.878906 -185504.281250 203309.093750
30088.398438 -185759.171875 207436.000000
29729.888672 -185755.171875 207488.718750
31036.773438 -186047.625000 211467.515625
41110.253906 -188579.671875 222405.968750
39334.976562 -187277.921875 203178.750000
38888.527344 -186884.140625 206720.234375
40059.476562 -187244.406250 207974.250000
40110.253906 -187235.593750 207582.625000
38805.484375 -186981.609375 208261.906250
35846.074219 -186547.812500 211735.218750
35923.402344 -186561.937500 211532.765625
36110.824219 -186580.828125 211806.781250
37045.875000 -186732.609375 212427.250000
37511.296875 -187035.062500 213858.640625
37896.710938 -187071.703125 213750.843750
40972.050781 -187640.578125 215951.640625
39332.703125 -187599.812500 216718.296875
43356.941406 -187649.875000 207162.515625
48847.644531 -185985.281250 209557.781250
48743.980469 -185980.515625 209923.500000
47238.570312 -186711.937500 214421.453125
43091.242188 -187286.890625 210205.781250
43458.335938 -187220.796875 210546.531250
49963.261719 -185319.500000 210419.390625
45085.167969 -186970.937500 212232.343750
44435.074219 -187122.734375 213132.343750
42783.570312 -187668.718750 215946.375000
47891.175781 -165848.750000 185606.609375
53332.218750 -169041.500000 192783.343750
53466.597656 -169000.718750 192322.078125
53982.292969 -170053.078125 195001.812500
54184.246094 -170180.250000 194997.843750
55194.183594 -171881.843750 198224.031250
35447.636719 -182521.968750 223385.750000
31200.074219 -165286.359375 179088.171875
24650.257812 -165973.078125 181038.921875
21655.646484 -166855.750000 182144.937500
36580.804688 -163548.765625 182447.750000
22752.882812 -165762.250000 182712.234375
37865.882812 -163787.843750 182468.265625
37683.425781 -163710.843750 182612.718750
18348.560547 -168822.500000 183144.484375
32391.617188 -163047.968750 183184.093750
32702.011719 -162970.984375 183463.031250
19651.716797 -166859.046875 183670.562500
19712.304688 -166442.125000 184056.359375
25511.980469 -163933.109375 184421.765625
32793.699219 -162677.000000 184388.687500
19190.070312 -166258.593750 184810.281250
19367.345703 -166053.265625 184922.546875
24695.750000 -163940.343750 184886.953125
44207.144531 -164711.140625 185180.031250
39401.105469 -163310.609375 185360.031250
34029.765625 -162415.296875 185402.140625
10553.405273 -171803.281250 186258.250000
24271.041016 -163513.515625 185957.734375
31266.236328 -161949.687500 186115.468750
11970.587891 -168513.515625 186818.718750
39470.035156 -163058.296875 186594.734375
33557.070312 -161921.984375 186447.375000
33865.406250 -161839.734375 186759.062500
40493.015625 -163232.859375 187144.328125
40757.906250 -163326.406250 187042.734375
24953.009766 -162566.453125 187496.328125
24645.529297 -162648.171875 187490.015625
5732.494141 -169460.671875 187768.218750
4007.284912 -169239.625000 188545.140625
11171.833984 -166456.859375 188298.484375
45639.007812 -164948.343750 187924.343750
39033.875000 -162649.812500 187982.265625
7974.181152 -166797.656250 188536.390625
2247.724121 -169028.359375 189328.343750
2443.551025 -168872.406250 189288.843750
21979.673828 -162411.625000 189689.156250
22388.119141 -162431.671875 189332.093750
29685.449219 -160851.609375 189716.156250
6157.826172 -165441.359375 190133.140625
22841.904297 -162138.468750 189802.718750
23020.847656 -162001.531250 190059.015625
31622.226562 -160797.609375 189623.437500
21096.958984 -162343.453125 190450.171875
9727.791992 -164688.031250 190526.140625
38512.503906 -162144.796875 190583.468750
37820.000000 -161899.328125 190861.125000
31323.929688 -160490.156250 190948.109375
8188.100098 -164632.531250 191035.343750
6508.875977 -163924.546875 192166.296875
22091.484375 -161401.437500 192175.203125
32120.714844 -160152.781250 192681.562500
32509.896484 -160177.890625 192656.343750
22246.703125 -161102.328125 193107.859375
40699.097656 -162644.437500 193267.078125
40718.371094 -162639.703125 193708.531250
17381.277344 -161724.062500 194159.656250
40432.960938 -162508.328125 193847.718750
39111.789062 -161776.828125 194581.500000
20379.578125 -160797.343750 195327.328125
36724.835938 -160262.906250 196457.453125
36337.136719 -160274.156250 196062.953125
23138.269531 -159937.296875 196889.359375
10254.652344 -161592.609375 198533.015625
19153.761719 -160052.140625 198406.859375
38145.039062 -159952.531250 198752.609375
10891.828125 -161468.531250 199123.515625
28188.244141 -158566.656250 199369.765625
23895.654297 -159266.687500 200045.140625
27122.890625 -158572.671875 200605.921875
-5908.926758 -175619.828125 201684.093750
10834.924805 -161165.343750 201566.859375
24692.882812 -158927.125000 201621.203125
24833.427734 -158824.953125 202010.640625
-5799.436035 -174707.421875 202278.859375
15832.244141 -160216.515625 202574.453125
15611.845703 -160252.515625 202698.718750
32219.953125 -158162.578125 202692.609375
38295.917969 -158829.859375 202758.250000
38232.429688 -158785.015625 203108.421875
23590.863281 -158934.234375 203300.453125
23558.871094 -158920.359375 203667.828125
21535.064453 -159275.296875 204048.984375
33553.296875 -158045.328125 204140.828125
36184.371094 -158351.609375 204487.812500
6585.682129 -161874.406250 205172.953125
6942.007812 -161794.234375 205169.156250
21853.714844 -159220.546875 205187.375000
26198.322266 -158427.953125 205529.218750
10947.028320 -160926.609375 205685.234375
10927.713867 -161081.437500 206780.750000
11103.869141 -161018.328125 206668.015625
24468.044922 -158882.000000 206535.687500
-1141.958984 -167043.218750 207604.984375
-715.273987 -166769.671875 208020.640625
11164.257812 -161332.953125 208119.656250
11848.268555 -161299.218750 208829.046875
26301.373047 -158647.937500 208586.218750
-402.144989 -166621.265625 209158.937500
464.782013 -166126.593750 209300.187500
12241.330078 -161317.593750 209694.046875
-1365.588989 -167213.218750 209730.281250
20339.744141 -159896.156250 209891.468750
4294.762207 -180530.625000 210502.296875
31969.578125 -158075.656250 209979.765625
7416.014160 -163093.296875 210702.515625
20159.216797 -160152.328125 210617.562500
30697.931641 -158163.953125 210682.671875
36375.421875 -158413.609375 210992.937500
35966.910156 -158386.312500 210937.062500
367.601990 -166568.093750 211545.750000
10516.863281 -162346.375000 211558.484375
6931.076172 -181994.187500 211771.921875
3494.382080 -165177.031250 211939.000000
14327.265625 -161370.406250 211389.859375
4199.746094 -179862.437500 212077.500000
8835.856445 -162992.500000 211927.187500
8941.412109 -163115.000000 212261.500000
31581.994141 -158410.218750 211987.546875
3829.443115 -165439.062500 212869.515625
4153.212891 -165309.640625 212902.515625
15637.686523 -161792.125000 212971.890625
24140.595703 -160052.546875 213124.281250
36794.222656 -158723.906250 213211.421875
9669.168945 -163767.609375 213918.046875
19870.005859 -161115.250000 213539.078125
30824.900391 -158843.421875 213577.515625
29177.796875 -159256.421875 214281.234375
13225.219727 -163047.093750 214371.062500
22936.513672 -160771.390625 214285.484375
35366.269531 -159081.968750 214413.453125
8236.880859 -180726.843750 214989.828125
6208.100098 -165504.156250 214959.812500
27935.527344 -159849.078125 215146.687500
6695.773926 -179205.656250 215211.968750
9234.338867 -164773.203125 215448.968750
29147.882812 -159683.343750 215360.031250
7778.234863 -179565.734375 215813.937500
7747.622070 -165426.171875 215641.468750
17095.361328 -163121.812500 215915.703125
37016.195312 -159622.187500 215574.453125
6391.484863 -166548.296875 216329.109375
6473.747070 -166357.328125 216157.343750
8929.719727 -179379.828125 216949.265625
33331.101562 -160182.953125 216922.687500
33569.937500 -160311.203125 217207.156250
8754.821289 -178600.140625 217375.625000
25353.302734 -161871.734375 217625.812500
30443.312500 -160477.250000 217160.781250
8506.598633 -177935.703125 217619.140625
8577.334961 -167298.937500 217684.296875
5975.741211 -168823.078125 217896.500000
6174.162109 -168629.281250 217840.359375
13320.308594 -166038.421875 217893.015625
20907.732422 -163723.750000 218077.328125
20977.037109 -163878.078125 218333.093750
9184.845703 -176821.015625 218474.062500
9373.037109 -176873.781250 218532.609375
7435.882812 -169107.656250 218413.421875
12659.430664 -166884.828125 218365.828125
12353.916992 -166958.640625 218329.875000
43516.101562 -162680.156250 218524.718750
40487.527344 -161703.531250 218533.859375
8561.891602 -169571.546875 218841.343750
15774.947266 -166393.390625 219011.984375
45313.847656 -164075.031250 219206.078125
45167.621094 -163837.453125 218993.187500
27200.611328 -162009.734375 218722.578125
11525.195312 -176559.046875 219296.937500
7185.823242 -173579.453125 219184.515625
7914.608887 -170418.968750 219057.390625
13553.897461 -167949.687500 219432.437500
13635.728516 -167655.406250 219264.687500
21366.093750 -164468.875000 219381.468750
26688.404297 -162520.093750 219337.328125
10211.685547 -173768.843750 219821.296875
9686.597656 -170826.437500 219538.000000
44839.078125 -164197.765625 219915.562500
38772.628906 -162119.671875 219862.343750
11620.883789 -174950.453125 219862.265625
10666.487305 -172131.093750 220033.750000
38578.550781 -162181.921875 220043.750000
17085.312500 -176551.250000 220564.359375
16870.441406 -167299.015625 220331.359375
18177.007812 -176121.468750 221068.328125
14543.461914 -173333.515625 220839.500000
15602.000000 -170232.250000 221033.093750
43255.332031 -164036.578125 220986.140625
38617.414062 -162774.796875 221007.296875
16896.175781 -174072.953125 221281.484375
25625.353516 -164308.703125 221110.859375
23470.570312 -166323.000000 221757.203125
21211.718750 -175194.171875 222305.625000
20941.865234 -175064.812500 222261.984375
18880.802734 -170588.031250 222048.468750
20384.494141 -170964.218750 222473.734375
35376.300781 -163547.000000 222688.609375
23811.283203 -168340.531250 222926.906250
24204.189453 -168236.781250 223023.187500
41271.773438 -164697.109375 223134.593750
24524.859375 -171629.031250 223899.031250
26577.308594 -167921.859375 223769.687500
33443.125000 -165086.671875 223901.312500
27546.746094 -167391.578125 223863.765625
31385.148438 -165150.531250 223697.890625
28506.621094 -167945.796875 224435.250000
29965.798828 -170802.437500 225859.218750
32965.792969 -169318.125000 226550.531250
48750.023438 -166197.453125 189253.671875
51323.507812 -167944.546875 191884.656250
48232.867188 -166358.296875 193196.875000
45632.242188 -164920.437500 193775.593750
52474.558594 -169857.296875 197511.531250
53580.546875 -170732.093750 198193.734375
53994.375000 -171158.562500 198723.421875
52645.273438 -170326.171875 198752.968750
52369.820312 -170556.109375 200194.812500
51841.007812 -170190.890625 200271.968750
51606.589844 -170188.125000 200782.921875
51421.007812 -170085.671875 200876.609375
51033.046875 -169978.359375 201334.234375
52394.324219 -171174.109375 202212.781250
52104.156250 -171017.921875 202386.296875
48554.042969 -168843.265625 202906.937500
53854.964844 -173263.156250 204562.625000
48103.273438 -169296.656250 205811.703125
51776.453125 -172092.328125 207560.500000
48946.195312 -172264.140625 210943.093750
34787.867188 -182721.093750 222625.312500
35037.687500 -182635.171875 222851.671875
43876.789062 -163913.546875 199549.625000
45601.304688 -165514.078125 201827.375000
46181.734375 -166340.734375 203191.937500
46429.917969 -164962.500000 204618.265625
47285.359375 -168610.484375 206246.015625
47353.195312 -165692.250000 206964.937500
47248.433594 -167708.328125 209154.156250
46910.441406 -168727.750000 209771.453125
46536.101562 -170363.781250 211391.171875
46548.546875 -170158.453125 211511.171875
46422.113281 -172351.859375 212503.875000
46150.734375 -172447.140625 212786.953125
48583.417969 -167583.406250 214097.265625
48623.562500 -167334.781250 213773.062500
48682.566406 -167430.734375 214237.390625
48925.531250 -166816.890625 214963.625000
45942.250000 -171581.375000 216350.437500
44311.011719 -172642.500000 217573.734375
38494.937500 -182081.765625 226071.625000
37983.445312 -179604.953125 222581.265625
39685.148438 -187409.609375 224228.953125
53411.929688 -173062.781250 205430.578125
43313.671875 -176642.218750 218457.843750
43261.492188 -176777.593750 218719.609375
36589.640625 -184690.093750 223382.515625
44760.652344 -174790.937500 215995.718750
46957.136719 -175465.984375 217284.765625
37691.394531 -179425.218750 223322.812500
37808.957031 -179280.359375 223419.234375
36531.285156 -181124.625000 226331.750000
39064.656250 -178182.062500 220253.843750
38807.699219 -178358.578125 220409.203125
44738.218750 -156613.671875 201671.078125
44814.285156 -156609.937500 201322.390625
47024.457031 -154720.578125 202037.421875
47797.695312 -154216.656250 202393.937500
49317.843750 -154093.953125 202789.953125
49077.296875 -153990.843750 202856.375000
38906.984375 -158634.765625 203725.265625
39046.179688 -158543.906250 204113.375000
48308.777344 -153574.937500 205639.468750
46408.941406 -154774.156250 206582.921875
46657.953125 -154635.437500 206827.156250
46110.203125 -155224.531250 208194.296875
44721.910156 -156222.593750 208760.265625
39324.019531 -158276.468750 209616.875000
49019.570312 -154125.093750 209271.859375
49305.367188 -154027.187500 209284.828125
49129.871094 -153995.328125 209155.359375
50534.464844 -155482.812500 210926.828125
41384.656250 -158046.421875 211523.109375
41784.015625 -157955.687500 211482.765625
50419.851562 -158019.109375 212546.671875
48918.808594 -158084.203125 212987.828125
50747.031250 -160958.984375 213554.921875
47960.910156 -160688.703125 214911.031250
42077.171875 -160290.750000 215995.687500
41880.468750 -160132.906250 215808.093750
47712.363281 -164272.453125 216785.359375
47383.171875 -163977.187500 216887.843750
46359.984375 -163619.359375 217552.312500
49099.800781 -157969.703125 196776.203125
48476.269531 -155209.187500 198353.453125
47535.910156 -155263.546875 199130.265625
44929.957031 -159464.062500 199313.062500
44717.972656 -159280.812500 199403.203125
50668.109375 -162152.703125 199701.796875
44300.343750 -157588.625000 199904.046875
44609.015625 -157367.531250 199805.578125
43080.113281 -159734.781250 200356.953125
43939.421875 -162591.875000 200795.734375
49501.660156 -162494.203125 201541.937500
45548.750000 -161968.828125 201482.046875
49922.734375 -162984.500000 202538.515625
48442.542969 -164191.562500 206050.437500
52395.371094 -163919.468750 207871.156250
51836.117188 -164199.906250 209225.578125
54811.152344 -161931.796875 209275.765625
54669.792969 -162189.781250 209278.375000
52911.628906 -162988.468750 210839.312500
49450.007812 -165570.140625 213044.343750
49365.574219 -165628.093750 213354.468750
40466.695312 -165529.265625 224571.296875
36000.382812 -167535.687500 226498.984375
35689.328125 -175043.500000 228215.953125
35776.183594 -175176.734375 228107.984375
36843.031250 -169446.453125 228188.656250
36714.472656 -174981.671875 229344.421875
36631.250000 -174655.453125 229503.859375
39502.289062 -176795.578125 230484.437500
39263.417969 -175880.859375 231094.531250
48101.812500 -166456.703125 220606.296875
48940.183594 -167202.578125 221931.328125
50545.562500 -168330.625000 222430.718750
47320.488281 -166669.234375 223141.843750
43325.777344 -165304.359375 223338.359375
51403.250000 -169010.093750 224886.531250
53502.632812 -170394.046875 225938.312500
53700.050781 -170568.250000 226165.218750
45484.109375 -167175.375000 225806.234375
53670.722656 -170865.234375 227309.203125
39668.781250 -168725.453125 228616.750000
37862.812500 -169741.656250 228874.156250
38085.304688 -169905.531250 229115.046875
44788.980469 -168693.781250 229022.437500
38632.152344 -170074.171875 229498.546875
40331.828125 -170054.000000 230221.593750
42284.875000 -170332.093750 231353.250000
42905.679688 -171725.515625 233043.140625
42510.789062 -175891.750000 233551.562500
46780.171875 -170481.765625 233605.031250
46730.550781 -170311.203125 233346.093750
44279.960938 -172140.703125 234172.015625
42467.902344 -173733.453125 219610.406250
44552.640625 -173907.484375 220162.703125
43675.421875 -174231.187500 220881.593750
42737.144531 -174789.578125 221931.093750
48551.144531 -172441.656250 218702.484375
49213.808594 -173298.968750 219878.125000
49415.816406 -173470.453125 220148.968750
50935.570312 -173254.625000 220737.734375
52421.003906 -173445.640625 221806.546875
46561.160156 -176006.031250 222725.125000
44091.578125 -176578.984375 223781.343750
43951.453125 -178362.828125 225931.562500
45782.214844 -180045.062500 228824.562500
45759.515625 -180133.093750 229834.218750
50244.050781 -170582.234375 218718.140625
51242.269531 -169952.718750 220549.421875
51155.417969 -169293.359375 221171.906250
55578.300781 -172253.906250 224507.375000
55636.929688 -172431.031250 224223.781250
53318.312500 -170239.031250 225298.437500
-5754.217773 -160659.468750 190165.375000
-2649.093994 -163295.125000 190446.078125
-4062.582031 -161012.593750 190410.765625
-276.106995 -163345.015625 191203.953125
-2921.883057 -159486.921875 191348.921875
868.138000 -161486.640625 192716.750000
2886.232910 -162847.375000 193086.703125
1615.255005 -161319.156250 193498.171875
-586.781006 -158863.828125 193985.593750
-1364.115967 -158177.781250 194464.953125
-1383.739014 -158041.953125 194822.968750
5573.904785 -161898.703125 196465.093750
5522.092773 -161795.578125 196827.296875
4445.708984 -161332.421875 197117.468750
4198.694824 -161168.546875 197306.187500
-11793.446289 -162454.375000 198392.703125
-6581.792969 -156774.828125 199144.031250
-6440.071777 -156813.390625 199369.890625
-2452.991943 -157795.812500 199814.140625
-11824.448242 -162492.234375 200201.015625
-2288.058105 -158267.390625 200549.921875
-2464.135986 -158072.953125 200317.953125
-7868.460938 -168887.171875 200799.031250
-5062.058105 -157899.140625 200929.203125
-48.306999 -159526.718750 201215.203125
-10686.821289 -163282.890625 201443.437500
-69.491997 -159720.453125 201541.125000
-4498.062988 -158470.765625 201625.828125
-7600.277832 -159308.953125 202259.171875
919.718018 -160902.546875 202595.390625
-6802.788086 -159365.265625 202615.656250
-5663.591797 -161057.656250 203787.093750
-4501.119141 -163111.984375 204268.765625
-735.687988 -164807.921875 205041.015625
-489.278015 -164981.984375 205236.156250
-313.210999 -164677.593750 205127.078125
-6323.203125 -178135.875000 202233.937500
-6839.800781 -178272.765625 202865.203125
-6655.672852 -180766.078125 204718.500000
-6521.011230 -180591.796875 204436.687500
-8307.483398 -174138.234375 206032.921875
-8520.157227 -174373.109375 206137.234375
-6369.633789 -171659.406250 206775.406250
-4093.518066 -182223.453125 207532.937500
-10413.712891 -177565.828125 207285.406250
-1994.911011 -181852.187500 207902.890625
-1984.831055 -181800.937500 208153.937500
-2592.090088 -181925.765625 208125.375000
-10768.041992 -176290.796875 208321.734375
-11382.148438 -184000.765625 209002.796875
-3463.842041 -182099.203125 208802.359375
-10598.543945 -184559.296875 209361.468750
-11471.784180 -176936.875000 209038.593750
-11679.914062 -177070.750000 209258.156250
-9485.080078 -184766.968750 209499.671875
-6691.346191 -183251.750000 210037.078125
588.060974 -180802.718750 209814.250000
-8689.441406 -173028.687500 209707.062500
-6031.176758 -170329.640625 210890.562500
-10269.928711 -174493.656250 211533.140625
-3547.719971 -182386.359375 212221.671875
-12267.194336 -176707.750000 212030.640625
-3158.988037 -168517.906250 211906.140625
-3039.726074 -168577.609375 212324.421875
719.448975 -180150.718750 212294.640625
469.088989 -180226.125000 212701.843750
-4215.527832 -169386.421875 212725.500000
-1870.713989 -181817.515625 213134.796875
1055.526978 -179622.859375 213721.734375
-4849.431152 -183234.078125 214537.312500
3938.754883 -178696.359375 214376.421875
-4117.982910 -182759.046875 215259.281250
3770.020996 -178465.421875 215071.750000
-7217.207031 -171514.093750 214668.468750
5466.412109 -178481.296875 215484.125000
558.867004 -168441.531250 215600.750000
-3011.409912 -182161.078125 216159.343750
2558.698975 -178008.375000 216190.531250
-5806.165039 -172654.703125 216213.421875
1417.864990 -168574.625000 216198.593750
-10646.639648 -176353.375000 216176.406250
-10763.320312 -176591.281250 216420.734375
-10475.987305 -176437.125000 216635.968750
-3074.993896 -171199.156250 216311.703125
-5112.830078 -182406.500000 217174.531250
-5256.270996 -173326.421875 216977.390625
466.389008 -169406.875000 216607.656250
333.606995 -169644.109375 216750.625000
-759.320984 -180101.140625 217173.703125
-10489.920898 -176765.656250 217126.468750
-732.255005 -179158.125000 217841.984375
3639.846924 -176724.515625 217547.296875
-5490.492188 -174008.140625 217469.140625
-2381.747070 -180003.046875 218073.234375
16.846001 -177794.515625 217873.562500
115.726997 -171646.921875 217858.859375
-2587.292969 -176835.828125 218677.515625
-2832.418945 -176811.734375 218733.625000
1224.463989 -175217.468750 218376.140625
3151.361084 -171461.765625 218439.062500
-3602.066895 -178010.406250 218968.359375
-7752.065918 -175848.625000 218835.671875
-7840.249023 -175716.640625 218669.328125
-7991.089844 -175869.328125 218771.562500
-4778.991211 -177696.687500 219343.453125
-6543.367188 -178102.843750 219671.718750
32340.533203 -172166.375000 169258.062500
34061.832031 -170626.500000 169585.937500
34425.976562 -170331.031250 169779.281250
32322.000000 -170446.562500 171456.500000
27966.630859 -176810.375000 172074.078125
32742.212891 -169947.171875 171776.359375
30606.572266 -171161.921875 172068.015625
27734.195312 -173234.000000 172653.703125
37538.277344 -167815.328125 172945.859375
26710.136719 -177783.484375 173602.375000
38303.945312 -167411.031250 173619.937500
26593.125000 -178179.609375 173881.812500
26574.826172 -177906.000000 173784.843750
41450.195312 -167058.765625 174055.078125
27798.697266 -181678.796875 174562.687500
28244.953125 -183131.468750 175673.515625
28124.851562 -182840.218750 175423.390625
41774.281250 -166588.625000 175167.140625
27200.304688 -181625.687500 175840.140625
45908.500000 -166671.796875 176427.859375
46178.410156 -166612.062500 176774.359375
27700.371094 -183284.718750 178273.187500
29545.937500 -185884.828125 178285.906250
48746.800781 -166547.156250 180328.093750
49066.523438 -166645.281250 180455.562500
31378.931641 -186961.359375 181041.062500
45391.187500 -165598.296875 181554.437500
48293.378906 -166226.140625 182429.718750
47630.070312 -165993.515625 182665.609375
47965.851562 -166020.031250 183378.437500
33225.781250 -187541.765625 184446.171875
31566.220703 -186793.234375 186792.156250
29006.505859 -185845.562500 187070.296875
35170.164062 -188154.296875 187735.906250
32532.072266 -187170.562500 188406.718750
32247.511719 -187041.250000 188134.109375
30174.994141 -186292.781250 188880.562500
