1230
61278.667969 45381.593750 17281.998047
61628.136719 45412.105469 17095.085938
61920.476563 45154.179688 17213.142578
61995.300781 45424.261719 16935.619141
93470.781250 69028.664062 20056.388672
93580.468750 68665.453125 20170.345703
93709.820312 68932.203125 20347.228516
62308.570312 45411.789062 16832.820312
62579.074219 45228.796875 16889.972656
62582.554688 45569.832031 16622.527344
62953.253906 45979.343750 16214.204102
62703.136719 45833.488281 16390.025391
62971.785156 45644.820312 16448.722656
56054.992188 46180.742188 25115.732422
55847.789062 46260.046875 25408.625000
56071.179688 46082.527344 25525.052734
55825.890625 46217.441406 25750.189453
55790.031250 46193.808594 26153.759766
56100.945313 45992.261719 25949.960937
55744.582031 46199.945312 26563.535156
56017.613281 46003.417969 26384.423828
55712.898437 46226.464844 26962.529297
55984.070312 46010.847656 26784.617188
55695.406250 46274.429688 27347.662109
55955.988281 46046.621094 27182.025391
55931.500000 46110.156250 27558.785156
55696.878906 46335.335938 27714.285156
55930.800781 46177.820312 27909.425781
56149.687500 45961.660156 27766.437500
56453.632812 46099.375000 24436.115234
56221.710937 46179.839844 24683.363281
56554.285156 45954.406250 24725.429688
56337.035156 46024.015625 24982.568359
56550.273438 45855.980469 25105.224609
56312.667969 45962.777344 25307.634766
56300.765625 45902.207031 25643.271484
56347.308594 45828.601562 27960.164062
56369.183594 45756.042969 27652.257812
57029.117188 45952.812500 23788.447266
56705.851563 46103.386719 23926.332031
56931.296875 45918.734375 24072.857422
56723.558594 45966.101562 24326.314453
56741.558594 45782.257812 24924.642578
56958.824219 45644.355469 24941.560547
56789.101562 45679.863281 25204.447266
57431.554688 46125.675781 22593.691406
57277.519531 46079.089844 22986.496094
57523.992188 45972.007812 22881.109375
57058.386719 46308.957031 22708.273438
56954.828125 46220.511719 23138.050781
57495.894531 45783.363281 23475.781250
57206.914063 45974.527344 23411.271484
57341.640625 45770.554688 23782.324219
57865.906250 46164.386719 21651.808594
57740.425781 46154.335938 21955.843750
58013.218750 46010.402344 21929.179688
57819.457031 45995.691406 22327.781250
57933.898438 45809.355469 22690.423828
57686.019531 45946.984375 22689.982422
57738.898437 45823.500000 22958.546875
58234.128906 46156.011719 19950.687500
58069.855469 46244.511719 20210.837891
58304.183594 46103.925781 20329.636719
58055.414062 46232.214844 20523.935547
58055.449219 46188.355469 20934.669922
58315.082031 46071.996094 20693.015625
57966.375000 46178.617188 21316.035156
58200.484375 46067.281250 21213.535156
58317.332031 46037.054688 20994.453125
58469.371094 45915.187500 21250.593750
58192.523437 46004.328125 21558.917969
58299.421875 46185.277344 18854.068359
58245.164062 46169.734375 19238.277344
58454.859375 46050.851562 19100.605469
58463.160156 46027.363281 19393.486328
58246.792969 46153.226562 19580.341797
58490.304688 46007.703125 19733.429688
58540.652344 45977.269531 20096.941406
58804.570313 45827.667969 20215.507812
58984.265625 45717.613281 20513.394531
59078.796875 45674.625000 20116.593750
58611.816406 45923.492188 20498.568359
59152.871094 46128.527344 17713.398438
58912.816406 46116.343750 17967.003906
59226.972656 45907.093750 18054.072266
58682.601562 46127.753906 18238.095703
58949.335937 45973.691406 18236.382812
58822.683594 45940.945312 18554.310547
58495.492188 46134.878906 18544.171875
58838.488281 45856.632812 18891.433594
58595.816406 46003.777344 18848.582031
92724.070312 68864.953125 19105.986328
92741.703125 69194.265625 19154.210938
92584.468750 69059.804688 18944.263672
59508.316406 45957.628906 17696.501953
60055.246094 45814.058594 17482.787109
59943.929688 46044.015625 17266.101562
59791.128906 45936.855469 17499.513672
60254.835938 45938.644531 17214.291016
60116.675781 46189.574219 17023.300781
60443.121094 46114.929688 16946.058594
60814.582031 46077.984375 16822.802734
60634.175781 45818.085938 17150.357422
60965.855469 45592.777344 17215.503906
60956.343750 45825.664062 16987.888672
61111.558594 45950.371094 16812.953125
65502.718750 54899.628906 58060.617188
65546.695312 55139.347656 58110.437500
61289.996094 45695.109375 16972.478516
61394.964844 45977.277344 16690.751953
61729.894531 45739.187500 16771.226562
61673.285156 46035.902344 16551.900391
92184.515625 68542.828125 18403.341797
92067.164062 68840.664062 18292.144531
91974.625000 68539.203125 18150.128906
62160.792969 45671.753906 16678.589844
61981.867187 45967.652344 16508.060547
55650.753906 46572.250000 24686.294922
55448.671875 46631.960938 25005.226562
55698.636719 46426.433594 25126.082031
55398.414062 46599.777344 25328.082031
55335.792969 46584.492188 25705.664062
55606.332031 46409.769531 25540.964844
55555.683594 46391.324219 25931.982422
55282.105469 46581.914062 26101.742188
55510.710938 46389.703125 26335.871094
55238.527344 46595.535156 26509.630859
55473.617188 46408.988281 26740.054687
55214.769531 46623.980469 26914.757812
55453.761719 46447.152344 27133.974609
55214.914062 46667.074219 27306.593750
55237.480469 46723.046875 27686.615234
55455.628906 46499.914062 27513.480469
56066.777344 46698.121094 23445.597656
55867.167969 46704.242188 23812.957031
56210.941406 46494.453125 23720.396484
56077.242188 46461.500000 24079.093750
55763.382812 46628.019531 24242.343750
55980.761719 46405.777344 24461.228516
55917.742188 46350.050781 24810.308594
56407.707031 46680.433594 22862.720703
56234.085938 46696.128906 23138.332031
56467.625000 46540.566406 23115.539062
56356.437500 46513.992188 23391.173828
56641.675781 46363.695312 23285.580078
56523.484375 46315.984375 23636.261719
56505.910156 46143.144531 24184.099609
56381.363281 46293.925781 23968.728516
56268.628906 46261.703125 24295.250000
56972.234375 46596.726562 22033.345703
56797.691406 46616.175781 22315.835938
57008.300781 46459.796875 22366.619141
56575.558594 46689.449219 22532.449219
56703.488281 46469.425781 22889.244141
56826.816406 46506.972656 22564.591797
57457.367187 46544.761719 20888.201172
57194.582031 46652.121094 21251.265625
57505.421875 46445.300781 21319.677734
57325.054688 46504.261719 21561.072266
57088.253906 46630.730469 21655.320312
57264.484375 46457.558594 21879.013672
57183.464844 46418.300781 22166.908203
57457.457031 46258.222656 22148.958984
57224.375000 46314.488281 22399.277344
57744.902344 46533.972656 18943.095703
57526.046875 46636.871094 19229.591797
57784.042969 46459.550781 19313.900391
57600.933594 46561.921875 19512.363281
57553.023438 46577.117188 19790.316406
57811.437500 46420.042969 19674.652344
57731.906250 46457.425781 19965.080078
57537.000000 46569.410156 20115.251953
57528.839844 46547.738281 20467.794922
57777.554688 46376.007812 20696.740234
57807.816406 46394.488281 20277.369141
57750.746094 46339.496094 21096.363281
57730.160156 46293.386719 21420.513672
57556.019531 46327.722656 21706.859375
58360.511719 46493.085938 17858.027344
58146.324219 46540.113281 18019.837891
58321.234375 46344.039062 18250.300781
57973.062500 46557.343750 18260.419922
57707.195313 46646.769531 18540.982422
58044.308594 46400.285156 18639.031250
58017.929688 46334.789062 19071.306641
58021.679688 46298.226562 19435.601562
57949.894531 46324.886719 19968.306641
58049.996094 46270.300781 19723.927734
58840.664062 46470.761719 17454.845703
58608.644531 46479.691406 17631.607422
58866.863281 46300.402344 17682.080078
58621.457031 46303.429688 17929.007812
58284.398438 46257.687500 18566.275391
59336.667969 46188.410156 17477.890625
59086.449219 46339.652344 17452.414062
97510.390625 68918.593750 26971.621094
97559.296875 68560.812500 27061.361328
97603.968750 68835.937500 27217.441406
59620.574219 46163.644531 17325.083984
59330.011719 46379.941406 17245.835938
59334.148438 46592.589844 17024.187500
59011.812500 46600.890625 17195.851562
59947.101562 46471.687500 16846.441406
59845.390625 46253.371094 17094.980469
60581.445312 46343.269531 16690.730469
60767.003906 46601.019531 16423.089844
60314.085938 46617.929688 16576.802734
60279.273438 46342.519531 16811.863281
60880.558594 46326.527344 16591.037109
61122.175781 46442.863281 16418.833984
61939.332031 46452.125000 16160.525391
61659.054688 46436.210938 16254.291992
61808.234375 46227.890625 16363.855469
62142.535156 46206.308594 16280.920898
62377.324219 45927.460938 16417.664062
62437.667969 46196.113281 16203.242188
63072.929688 46216.671875 16017.001953
62723.839844 46328.464844 16031.213867
55279.257812 47012.050781 24158.839844
55157.089844 46983.914062 24515.230469
55453.500000 46800.457031 24400.025391
55036.500000 46971.949219 24874.505859
54940.121094 46962.390625 25237.736328
55206.007812 46785.714844 25115.468750
55320.562500 46787.492188 24767.474609
55130.324219 46774.105469 25474.939453
54866.914062 46956.406250 25609.322266
55065.554688 46772.226562 25858.007812
55004.773438 46789.183594 26267.041016
54792.414062 46974.050781 25998.292969
54973.203125 46810.671875 26689.097656
54696.425781 47034.140625 26449.007813
54977.250000 46837.101562 27096.132813
54738.535156 47015.253906 26892.369141
54999.144531 46881.949219 27480.923828
54761.835937 47046.746094 27281.248047
54804.828125 47090.964844 27655.500000
55666.687500 47124.160156 23141.048828
55510.632812 47093.507812 23499.753906
55780.613281 46903.621094 23461.609375
55388.792969 47056.523438 23820.296875
55561.515625 46848.730469 24026.332031
55620.605469 46918.464844 23723.931641
56109.140625 47033.820312 22528.015625
55901.031250 47068.000000 22840.335938
56154.246094 46866.878906 22858.992188
55964.722656 46892.093750 23147.953125
56674.089844 46999.640625 21280.564453
56425.996094 47134.269531 21479.599609
56650.812500 46931.621094 21644.035156
56419.488281 47052.878906 21806.888672
56231.320312 47094.261719 22113.712891
56609.628906 46830.296875 22075.443359
56901.125000 46807.593750 21445.462891
56848.347656 46760.097656 21770.583984
56369.203125 46896.835938 22377.316406
56321.640625 46833.320312 22632.615234
57027.917969 46868.019531 20466.109375
56898.039063 46924.203125 20769.994141
57133.792969 46758.062500 20833.585938
56684.796875 47051.906250 20923.515625
56918.527344 46866.617188 21080.585938
57392.484375 46905.949219 18377.666016
57160.617188 46984.523438 18665.164062
57414.136719 46771.691406 18851.933594
57100.175781 46956.476562 19004.015625
57059.023438 46934.804688 19369.533203
57286.601563 46799.019531 19199.761719
57333.984375 46734.328125 19543.560547
57301.570312 46729.257812 19932.570312
57294.691406 46710.292969 20274.500000
57289.937500 46686.589844 20579.849609
58004.242187 46839.683594 17635.195312
57722.613281 46887.527344 17861.406250
57945.617188 46697.890625 17955.404297
57508.808594 46941.160156 18046.720703
57703.007813 46764.316406 18172.574219
58154.132812 46644.554688 17800.650391
58339.300781 46686.718750 17558.533203
58651.242188 46659.921875 17355.087891
58708.062500 46914.476562 17042.869141
58433.414062 46841.328125 17283.587891
58296.011719 47083.460938 17100.755859
91107.023438 80653.179688 54517.433594
91164.250000 80362.890625 54609.460938
90889.687500 80577.703125 54665.671875
60203.238281 46957.933594 16360.812500
59853.691406 47137.132812 16355.734375
59899.214844 46815.500000 16584.341797
59606.906250 46422.125000 17051.414062
97072.367188 68402.750000 25825.441406
97004.179688 68066.570312 25636.943359
97123.054688 68057.976562 25909.916016
60523.015625 46838.621094 16333.174805
60841.996094 46940.589844 16153.341797
61116.257812 46922.062500 16076.118164
61106.582031 46723.738281 16218.661133
61388.898437 46877.003906 16024.953125
61694.933594 46662.710938 16081.675781
61762.960938 46930.203125 15878.579102
61403.390625 46568.347656 16236.825195
62779.390625 46682.804688 15773.814453
62668.429688 46986.703125 15595.165039
62383.695312 46790.859375 15801.999023
62312.824219 46465.441406 16045.906250
62025.335937 46710.304688 15954.048828
62907.921875 46878.414062 15608.992187
54468.062500 47356.519531 25138.179688
54200.660156 47534.527344 25348.318359
54429.042969 47316.675781 25519.445312
53944.097656 47713.808594 25600.136719
54010.433594 47621.945312 25970.794922
54207.582031 47474.843750 25720.115234
54614.218750 47139.363281 25731.839844
91717.875000 76314.250000 56170.574219
91552.679688 76361.960938 56374.933594
91590.765625 76558.585938 56193.628906
54289.914062 47391.625000 26867.947266
53998.722656 47639.925781 26795.437500
54139.449219 47563.558594 27155.638672
54999.582031 47410.945312 23694.992188
54813.128906 47433.621094 24002.867188
55119.628906 47223.949219 23921.923828
54744.265625 47352.050781 24366.853516
54547.691406 47406.578125 24692.162109
54870.093750 47172.343750 24617.416016
54996.363281 47190.761719 24264.408203
54753.347656 47163.378906 24987.646484
54676.664062 47143.273438 25368.669922
54517.843750 47187.523438 26750.660156
54543.574219 47274.113281 27469.181641
54531.324219 47210.003906 27079.601562
54356.062500 47380.976562 27207.373047
54429.847656 47433.683594 27705.871094
54290.675781 47492.929688 27461.244141
55068.050781 47503.925781 23354.820312
55242.394531 47263.527344 23591.548828
55644.945312 47428.656250 22448.835938
55432.437500 47476.261719 22750.271484
55664.550781 47274.437500 22789.919922
55259.769531 47495.269531 23026.146484
55480.363281 47334.585938 22991.658203
56188.589844 47345.988281 21312.605469
55984.250000 47463.992188 21489.960938
56164.769531 47268.578125 21711.392578
55886.144531 47468.484375 21770.484375
55768.132813 47463.683594 22084.695312
55999.898438 47311.511719 21995.431641
55936.410156 47258.242188 22291.837891
55852.472656 47213.289062 22579.031250
56603.445312 47345.210938 18890.039062
56449.265625 47396.000000 19280.107422
56792.589844 47149.050781 19187.308594
56618.632813 47235.597656 19498.308594
56355.832031 47416.125000 19718.923828
56679.351563 47163.972656 19783.798828
56258.152344 47449.925781 20156.533203
56504.781250 47271.417969 20037.505859
56782.375000 47061.351562 20156.732422
56719.199219 47069.683594 20568.146484
56483.070312 47259.027344 20366.542969
56453.351562 47241.628906 20739.613281
56438.042969 47199.226562 21111.470703
56193.722656 47409.929688 20928.464844
56997.843750 47369.816406 17913.583984
56776.492188 47414.812500 18186.929688
57021.191406 47179.453125 18343.949219
56703.367188 47362.933594 18509.755859
56893.945312 47154.003906 18762.365234
56830.484375 47077.921875 19520.552734
57008.617188 46934.164062 19772.523438
57081.679688 46860.000000 20116.378906
57170.824219 47437.382812 17562.888672
57268.847656 47243.339844 17762.226562
57454.500000 47249.574219 17540.699219
57485.285156 47074.480469 17798.734375
57271.519531 47112.660156 18035.146484
57971.976562 47300.078125 17064.595703
57699.882813 47263.500000 17302.009766
57979.617188 47064.171875 17338.615234
57720.492188 47055.031250 17574.837891
58204.605469 46895.468750 17380.097656
91039.312500 76420.992188 56935.058594
91216.132812 76401.890625 56758.421875
91178.742188 76244.507812 56920.816406
58237.816406 47382.457031 16825.650391
58563.429688 47238.988281 16799.828125
58874.917969 47131.152344 16751.550781
58817.515625 47424.066406 16523.509766
59362.914062 47307.656250 16404.277344
59147.007812 47482.945312 16348.411133
59142.644531 47211.144531 16568.005859
59161.460938 46881.617188 16846.142578
92816.492188 73981.421875 55406.039062
92919.039062 73715.656250 55339.953125
92754.984375 73752.953125 55594.171875
59509.328125 47046.078125 16556.675781
59588.191406 47291.566406 16335.294922
60486.031250 47108.699219 16155.055664
60762.429688 47262.949219 15962.185547
60435.347656 47414.132812 15966.741211
60704.777344 47555.410156 15792.861328
60968.449219 47423.617188 15795.090820
61124.894531 47154.171875 15920.716797
61659.535156 47464.585938 15557.757812
61268.968750 47483.292969 15665.904297
61516.261719 47182.699219 15784.404297
62069.343750 46956.796875 15774.072266
61891.746094 47193.218750 15667.244141
62056.890625 47469.382812 15432.940430
62626.976562 47317.117188 15373.634766
62336.207031 47381.617188 15412.658203
62290.273438 47157.593750 15579.343750
63017.441406 47083.605469 15436.950195
62995.273438 47405.042969 15200.238281
53949.539062 47772.464844 25202.394531
53753.035156 47906.359375 25399.666016
53812.566406 47797.605469 25886.353516
53628.296875 47952.378906 25999.218750
53807.558594 47788.093750 26180.472656
53686.156250 47926.226562 25688.902344
53876.312500 47797.425781 27151.095703
54054.507812 47702.074219 27454.667969
54350.656250 47824.980469 23974.457031
54205.437500 47817.031250 24299.238281
54503.136719 47586.062500 24257.292969
54064.558594 47823.738281 24618.519531
54302.675781 47643.828125 24558.001953
54207.984375 47619.250000 24921.312500
54965.648438 47834.109375 22808.730469
54779.453125 47895.750000 23017.472656
55014.839844 47687.812500 23039.542969
54761.511719 47639.804688 23610.478516
54834.339844 47730.957031 23272.507812
54560.769531 47927.605469 23352.271484
54580.949219 47658.546875 23908.103516
93127.750000 74143.671875 54879.796875
93188.984375 73838.320312 54895.750000
92991.484375 73973.101562 55134.648438
55343.132813 47658.894531 22487.341797
55183.265625 47668.218750 22774.496094
55494.878906 47656.339844 22167.560547
55627.500000 47657.152344 21834.472656
56176.605469 47712.125000 18832.443359
55978.878906 47833.695312 19048.636719
56170.015625 47633.492188 19222.958984
55897.769531 47846.089844 19363.042969
55822.496094 47859.613281 19730.068359
56085.218750 47652.359375 19576.523438
56041.496094 47647.585938 19939.382812
55993.250000 47644.832031 20326.892578
55741.714844 47834.394531 20496.429688
55704.402344 47810.714844 20874.330078
55958.437500 47624.414062 20717.660156
55915.707031 47589.117188 21149.628906
55756.078125 47641.242188 21505.890625
56570.253906 47827.296875 17692.955078
56400.339844 47801.312500 18012.187500
56678.199219 47601.441406 17940.890625
56526.953125 47583.765625 18272.597656
56364.136719 47517.585938 18974.271484
56429.253906 47546.320312 18641.693359
56217.738281 47442.093750 20539.601562
57073.507812 47698.742188 17303.019531
56762.281250 47843.652344 17432.150391
56864.796875 47626.964844 17629.894531
57403.835938 47467.660156 17290.935547
96252.070312 68318.070312 24062.886719
96216.953125 68685.023438 24044.251953
96099.187500 68477.062500 23780.753906
57357.636719 47709.011719 17051.113281
57670.660156 47501.796875 17046.208984
57628.324219 47773.851562 16808.054688
57945.574219 47861.929688 16555.175781
57943.550781 47564.339844 16813.607422
58187.464844 47627.140625 16627.333984
58463.167969 47527.359375 16585.675781
58636.578125 47682.445312 16384.904297
96153.789062 69055.992188 23975.585938
96080.914062 68785.687500 23790.136719
58908.925781 47705.660156 16264.546875
59222.320313 47738.812500 16131.353516
59440.429688 47506.878906 16226.443359
59787.671875 47467.683594 16139.184570
59549.605469 47750.250000 16018.747070
92727.078125 74233.789062 55459.542969
92575.562500 74296.648438 55696.128906
92654.421875 74497.484375 55484.449219
60965.972656 47668.812500 15642.385742
61183.468750 47761.300781 15516.021484
60967.253906 47938.484375 15470.422852
60396.949219 47721.160156 15781.907227
61772.738281 47729.503906 15342.415039
61559.683594 47975.062500 15240.188477
61450.300781 47732.531250 15447.313477
62081.175781 47778.339844 15200.073242
62369.363281 47575.867188 15258.538086
62805.214844 47852.453125 14876.724609
62410.671875 47882.164062 14995.455078
62702.464844 47614.566406 15120.886719
93356.828125 68690.781250 19894.970703
93462.273438 68387.484375 20009.966797
53367.617188 48287.097656 25223.398438
53290.183594 48295.144531 25588.998047
53533.621094 48092.605469 25458.285156
53465.089844 48112.097656 25799.611328
53243.472656 48286.007812 26272.664062
53281.210938 48257.457031 26583.408203
53409.613281 48136.324219 26396.248047
53778.453125 47816.304688 26534.785156
53738.527344 47876.960938 26862.837891
53995.171875 48222.265625 23801.396484
53842.230469 48235.648438 24081.355469
54093.347656 48027.648438 24028.216797
62286.777344 44546.675781 42713.027344
62495.539062 44550.367188 42979.625000
62514.437500 44317.152344 42730.503906
53811.667969 48026.730469 24678.386719
53945.851562 48023.371094 24355.027344
53668.472656 48050.406250 25059.072266
53438.531250 48300.316406 24904.404297
53936.953125 47851.445312 24895.578125
92718.937500 72725.945312 56059.738281
92853.554688 72550.687500 55899.859375
92718.437500 72514.906250 56147.613281
53814.820312 47926.527344 27486.914062
53553.175781 48091.335938 27161.876953
53602.457031 48158.839844 27630.564453
54504.781250 48319.660156 22657.291016
54303.992188 48378.792969 22915.855469
54534.316406 48133.707031 22974.568359
93362.703125 68101.031250 19874.226562
93247.078125 68394.820312 19743.431641
93113.335938 68073.921875 19560.613281
54255.441406 48053.769531 23655.945312
54496.773438 47820.187500 23699.107422
54813.199219 48289.171875 22083.910156
54679.347656 48287.843750 22381.277344
54937.074219 48075.640625 22323.242188
54779.953125 48059.085938 22672.263672
93143.468750 68689.546875 19628.582031
93060.054688 68424.093750 19509.605469
55241.742187 48211.175781 20931.873047
55076.367188 48273.941406 21354.833984
55356.914063 48032.253906 21288.119141
54933.843750 48298.515625 21739.802734
55214.578125 48067.394531 21646.294922
62755.878906 43852.214844 42487.980469
62527.144531 44078.335938 42465.199219
62750.550781 44082.625000 42754.312500
55076.210938 48079.171875 21995.242188
55071.156250 47860.472656 22550.505859
55213.644531 47866.320312 22240.435547
55638.085938 48194.656250 18848.525391
55493.710938 48258.621094 19135.929688
55751.031250 48028.542969 19099.054688
55365.355469 48323.738281 19406.445312
55349.574219 48290.812500 19709.294922
55602.628906 48093.261719 19477.986328
55562.625000 48068.757812 19898.699219
97449.625000 68323.539062 26745.857422
97581.187500 68130.281250 27052.289062
55498.777344 48020.761719 20675.427734
55528.140625 48049.082031 20288.611328
55277.714844 48251.804688 20485.062500
55486.960938 47977.281250 20997.140625
55620.242188 47816.562500 21228.613281
55489.953125 47847.031250 21568.996094
56186.710938 48260.773438 17562.644531
55925.925781 48463.250000 17642.642578
56031.535156 48208.503906 17883.638672
55716.792969 48441.558594 18037.101562
55664.339844 48286.890625 18500.888672
55946.722656 48111.214844 18260.060547
55908.640625 47987.191406 18711.136719
56218.253906 47810.117188 18393.300781
55777.320312 47851.789062 20112.490234
56557.554688 48282.289062 17128.734375
56324.273438 48320.636719 17316.335938
56495.984375 48077.613281 17430.560547
92811.554688 72342.273438 56056.292969
92705.265625 72276.406250 56272.050781
56297.363281 48023.546875 17766.982422
92843.164062 72121.429688 56095.703125
92754.828125 72032.570312 56288.824219
57096.007812 48379.328125 16625.189453
56842.714844 48292.382812 16880.269531
57234.183594 48027.210938 16837.716797
56862.960938 48004.031250 17149.361328
62137.882813 42011.539062 28442.037109
62387.792969 41868.609375 28696.740234
62479.187500 41895.628906 28257.853516
57820.707031 48129.890625 16405.382812
57600.195312 48046.742188 16589.203125
58338.746094 47836.222656 16391.126953
58088.179688 48112.003906 16293.986328
58165.812500 48367.484375 16080.473633
58392.914062 48142.582031 16142.488281
58658.714844 47929.882812 16191.295898
58702.515625 48245.562500 15956.924805
58979.062500 47978.941406 16043.074219
59068.027344 48255.843750 15830.102539
59400.468750 48290.304688 15710.665039
59319.042969 48007.183594 15916.042969
59700.707031 48037.515625 15785.185547
60370.714844 48037.960938 15590.482422
60073.195312 47889.664062 15771.148438
59665.441406 48652.476562 15409.062500
59704.597656 48372.917969 15574.041016
59973.734375 48526.492188 15397.286133
60689.746094 48149.285156 15420.470703
61014.007812 48207.679688 15270.891602
60684.371094 47847.238281 15616.534180
61253.570313 47977.203125 15348.587891
61341.640625 48229.042969 15131.596680
61833.312500 47951.941406 15157.616211
61710.835938 48214.683594 14992.924805
62048.632812 48051.097656 14993.672852
61990.875000 48281.910156 14813.986328
62270.472656 48182.546875 14782.264648
62597.425781 48104.746094 14716.016602
62712.949219 48329.968750 14432.332031
62957.179688 48060.093750 14612.358398
53071.917969 48721.187500 24712.822266
52851.425781 48918.046875 24787.873047
52901.578125 48771.398438 25109.917969
52848.636719 48728.367188 25556.142578
53104.585938 48508.988281 25365.783203
52838.386719 48688.468750 25946.451172
53055.933594 48494.984375 25751.775391
53249.851562 48295.117188 25942.273438
52852.449219 48658.726562 26318.912109
53045.863281 48474.855469 26116.726563
52891.699219 48636.718750 26696.580078
53069.187500 48449.609375 26467.027344
53127.699219 48417.652344 26806.900391
52976.839844 48602.910156 27073.201172
53235.441406 48369.316406 27139.402344
53338.863281 48232.132812 26873.818359
90219.500000 79932.968750 20621.726562
90280.937500 79570.703125 20501.632812
90460.125000 79693.921875 20701.486328
53205.750000 48504.835938 24975.714844
53427.777344 48124.292969 26122.541016
53350.406250 48346.175781 27487.402344
53650.109375 48835.667969 23281.552734
53643.554688 48689.996094 23557.750000
53845.382812 48590.765625 23366.986328
53688.957031 48234.566406 24419.791016
53586.425781 48459.113281 24131.535156
54414.500000 48686.566406 22066.427734
54241.953125 48721.500000 22373.517578
54454.050781 48506.144531 22379.130859
53896.597656 48746.398438 22989.078125
54082.804688 48475.296875 23142.357422
54073.457031 48751.488281 22648.462891
54129.507812 48579.402344 22861.531250
54823.843750 48644.242188 20803.111328
54686.074219 48726.054688 21076.523438
54940.613281 48476.894531 21050.900391
54544.980469 48799.449219 21361.394531
54496.351562 48749.664062 21681.433594
54764.480469 48550.746094 21452.216797
54603.316406 48460.261719 22160.292969
54668.957031 48510.355469 21869.839844
55078.785156 48723.289062 18936.044922
54983.007812 48725.550781 19313.466797
55239.648438 48492.968750 19185.855469
54921.292969 48718.542969 19678.996094
55158.265625 48504.203125 19526.757812
55111.457031 48496.347656 19874.861328
55311.285156 48275.824219 20084.412109
54758.812500 48796.417969 20269.322266
55036.667969 48515.500000 20271.904297
54898.820313 48692.171875 19995.714844
94452.500000 76632.500000 24065.921875
94614.398438 76691.445312 24264.373047
94454.296875 76937.070312 24196.708984
55032.718750 48457.371094 20678.421875
54851.574219 48661.507812 20537.500000
55182.894531 48724.562500 18601.818359
55383.351562 48458.234375 18795.935547
55413.789062 48588.285156 18362.001953
56108.652344 48709.730469 17115.958984
55890.128906 48699.835938 17371.605469
56117.128906 48490.121094 17352.589844
95834.585938 67970.328125 23213.837891
95795.625000 67655.039062 23106.621094
95928.062500 67637.492188 23342.146484
92941.523438 72253.843750 55874.484375
56545.386719 48732.050781 16708.917969
56334.226562 48721.730469 16890.458984
56557.855469 48516.074219 16895.486328
56324.375000 48504.417969 17115.078125
56789.375000 48581.246094 16662.755859
57370.398438 48240.984375 16565.062500
57332.460938 48491.500000 16395.910156
57305.437500 48786.660156 16197.513672
57610.316406 48588.515625 16184.681641
57873.140625 48357.628906 16217.815430
57967.511719 48663.636719 15972.544922
58273.851562 48558.035156 15910.837891
58415.355469 48377.390625 15972.228516
58857.527344 48471.367188 15758.927734
59148.160156 48558.652344 15617.220703
58813.582031 48730.585938 15613.712891
59459.730469 48524.382812 15549.414062
60193.011719 48673.386719 15226.862305
59898.703125 48846.675781 15200.176758
60489.914062 48681.500000 15113.109375
60354.894531 48393.183594 15364.649414
61429.527344 48493.609375 14876.976562
61084.664062 48476.425781 15040.697266
60743.218750 48442.597656 15197.916992
62148.386719 48452.015625 14575.055664
61897.886719 48721.707031 14425.736328
61780.281250 48494.238281 14712.632812
95676.140625 67456.203125 22885.726562
95663.898438 67852.500000 22906.623047
62250.332031 48681.054688 14278.269531
62423.878906 48474.667969 14415.726562
63151.441406 48535.457031 13988.005859
63038.027344 48756.921875 13765.840820
62810.882812 48694.242188 13963.619141
62875.785156 48485.937500 14179.465820
62584.519531 48590.894531 14203.482422
52701.699219 49126.757812 24665.740234
52487.054687 49292.167969 24876.683594
52664.394531 49049.128906 24998.169922
52478.109375 49206.066406 25166.253906
52394.890625 49245.347656 25400.242188
52611.722656 49008.089844 25384.517578
52428.660156 49156.285156 25675.804688
52455.578125 49088.281250 25998.648437
52629.433594 48921.046875 25785.498047
52464.761719 49066.699219 26336.755859
52643.710938 48875.750000 26152.982422
52464.867188 49084.660156 26697.792969
52662.640625 48859.625000 26530.511719
52440.187500 49159.593750 27057.220703
52692.324219 48876.371094 26972.392578
52845.964844 48800.722656 27378.601562
53081.640625 49080.675781 23905.339844
52917.000000 49133.757812 24140.558594
53121.914062 48910.312500 24152.519531
52940.226563 48955.910156 24461.253906
52992.242188 48776.449219 27773.369141
53098.250000 48565.304688 27431.066406
53617.148438 49208.597656 22673.537109
53426.984375 49255.343750 22947.904297
53644.644531 49017.285156 22969.220703
53189.980469 49151.546875 23571.919922
53281.593750 48896.054688 23861.685547
53449.105469 48887.710938 23559.380859
53170.277344 48743.605469 24404.375000
53340.730469 48689.132812 24154.574219
53383.285156 48477.117188 24551.484375
53984.980469 49130.542969 22046.080078
53801.054688 49168.105469 22382.724609
54025.894531 48940.378906 22376.656250
53845.753906 48972.960938 22672.302734
54166.277344 49216.566406 21227.951172
54068.062500 49199.050781 21628.941406
54330.113281 48983.203125 21476.078125
54186.300781 48887.324219 22141.375000
54249.515625 48942.960938 21841.486328
54534.507812 49226.476562 19248.794922
54477.042969 49199.398438 19638.228516
54726.421875 48963.308594 19475.707031
54669.718750 48946.777344 19895.318359
54435.902344 48972.437500 21109.529297
55147.246094 49116.035156 17869.542969
54897.257813 49192.542969 18232.337891
55154.816406 48893.128906 18276.695312
54803.015625 48978.062500 19076.505859
54913.125000 49001.589844 18637.804688
54617.445312 49255.445312 18842.111328
55675.242188 49147.328125 17096.875000
55455.570312 49161.292969 17332.658203
55665.156250 48930.132812 17361.541016
55414.972656 48779.875000 17967.796875
55667.281250 48708.781250 17663.123047
93555.867188 68128.273438 20114.027344
93761.250000 67966.382812 20362.289062
93678.429688 68341.773438 20275.115234
56148.671875 49178.707031 16625.328125
55904.058594 49156.308594 16858.822266
56125.027344 48935.929688 16871.783203
55892.656250 48924.804688 17109.375000
56376.148438 48944.492188 16654.195312
57033.964844 48684.066406 16422.931641
56745.039062 49227.105469 16179.340820
56698.910156 48906.109375 16458.470703
57012.789062 48981.710938 16211.040039
56429.750000 49203.636719 16396.363281
57599.406250 48946.644531 15948.749023
57702.132812 49268.832031 15694.111328
57986.269531 49025.128906 15734.831055
57371.789062 49254.613281 15842.931641
58278.269531 48801.835938 15758.089844
58352.230469 49120.574219 15533.887695
58543.230469 48853.820312 15628.684570
58720.417969 49026.199219 15462.223633
58553.824219 48577.011719 15795.226562
93518.343750 67838.937500 20057.306641
59576.414062 48890.371094 15278.099609
59371.750000 48759.320312 15427.851563
60247.464844 48903.535156 15031.956055
60572.269531 48936.796875 14873.222656
60891.632812 48954.933594 14717.161133
60646.476563 49201.941406 14598.384766
61420.542969 49057.710938 14341.912109
61151.500000 49198.050781 14347.979492
61182.007812 48980.617188 14551.173828
60953.625000 49137.722656 14514.982422
61343.542969 49255.773438 14172.468750
61508.640625 48779.011719 14575.129883
61154.324219 48737.605469 14789.710938
93694.054688 67553.523438 20265.300781
98466.570312 73490.296875 28374.140625
98543.859375 73794.187500 28455.142578
98367.125000 73739.289062 28172.001953
62445.363281 48869.226562 13950.078125
62006.265625 48963.957031 14096.454102
63127.187500 48933.574219 13483.401367
62783.839844 48917.937500 13695.538086
52223.179688 49416.789062 25603.781250
52154.125000 49452.164062 25968.250000
52306.281250 49271.765625 25880.849609
52298.304688 49261.285156 26159.181641
52139.121094 49452.550781 26294.628906
52292.593750 49266.906250 26478.599609
52142.414062 49453.582031 26580.675781
52266.496094 49323.332031 26804.126953
52242.503906 49410.109375 27148.521484
52410.046875 49258.988281 27355.492188
52275.382813 49470.097656 27515.351562
93293.039062 67774.218750 19775.802734
52638.429688 49582.648438 23891.517578
52485.976562 49599.414062 24193.822266
52703.937500 49367.597656 24148.933594
52896.554688 49334.375000 23811.412109
94887.875000 75993.015625 24251.359375
95063.828125 76034.765625 24450.197266
94862.335938 76245.421875 24332.132812
52536.710938 49391.312500 24496.470703
52308.628906 49552.406250 24763.416016
52280.636719 49447.945312 25167.480469
52744.785156 48981.527344 27644.162109
52603.484375 49045.742188 27353.556641
52526.597656 49236.406250 27690.650391
53253.269531 49453.695312 22918.453125
53028.433594 49618.968750 23054.125000
53217.285156 49336.183594 23194.697266
53591.261719 49681.054688 21640.703125
53521.062500 49600.160156 22053.427734
53797.089844 49411.339844 21812.515625
53341.609375 49623.179688 22416.039062
53572.703125 49398.589844 22390.082031
53738.949219 49344.941406 22137.080078
92987.812500 71974.406250 55915.964844
92868.984375 71848.515625 56170.636719
53863.171875 49655.816406 20654.224609
53734.679688 49708.484375 21012.794922
54005.398438 49447.574219 20946.386719
53608.550781 49761.699219 21315.919922
53856.375000 49491.964844 21369.126953
54137.789062 49734.660156 19021.103516
53954.835938 49931.039062 19057.078125
54107.511719 49695.140625 19264.917969
54326.949219 49525.714844 19018.205078
54422.589844 49198.011719 19959.560547
54248.734375 49413.226562 19805.687500
54065.164062 49651.835938 19617.593750
54030.324219 49614.878906 19970.343750
54116.300781 49411.238281 20576.798828
53968.175781 49614.949219 20310.687500
54344.285156 49188.386719 20508.730469
54501.933594 49066.421875 20251.365234
54231.652344 49359.679688 20199.099609
54278.871094 49191.851562 20840.222656
54851.792969 49420.468750 17900.332031
54569.562500 49723.781250 17926.728516
54651.367188 49469.011719 18227.369141
54457.816406 49537.605469 18570.521484
55242.960938 49598.257812 17081.236328
55034.941406 49614.835938 17320.529297
55250.847656 49383.585938 17319.587891
55057.421875 49392.933594 17584.644531
92688.281250 68124.804688 19015.263672
92484.437500 67978.117188 18741.328125
92663.257812 67722.398438 18961.800781
90602.398438 75569.453125 18618.691406
90777.039062 75706.593750 18869.716797
90510.859375 75832.125000 18670.572266
54701.902344 49286.796875 18500.339844
55671.636719 49623.933594 16620.480469
55452.820312 49602.515625 16851.058594
55677.941406 49378.769531 16852.712891
55458.921875 49372.210938 17086.070312
55909.207031 49403.753906 16617.816406
56150.066406 49728.542969 16156.408203
56164.832031 49447.886719 16378.596680
56475.058594 49527.195312 16110.539063
94591.273438 75111.617188 23527.521484
94647.906250 75358.250000 23709.019531
94435.156250 75394.273438 23479.783203
56829.296875 49495.828125 15934.871094
57468.742188 49510.769531 15632.603516
57148.597656 49507.714844 15772.797852
57058.011719 49251.500000 15992.147461
57766.101562 49533.746094 15497.271484
58013.398437 49581.074219 15368.520508
58022.781250 49337.835938 15522.340820
58315.777344 49481.441406 15314.738281
58601.640625 49288.273438 15335.868164
58664.347656 49537.746094 15136.708984
58955.527344 49246.582031 15234.840820
59055.132813 48894.921875 15436.315430
59312.640625 49042.867188 15257.308594
59282.046875 49307.031250 15073.881836
59464.058594 49480.074219 14859.113281
59045.925781 49598.933594 14930.083984
59623.710938 49152.722656 15066.418945
60002.359375 49123.066406 14947.377930
59815.257812 49374.902344 14806.188477
97381.257812 67343.351562 26434.443359
97429.296875 66984.359375 26490.281250
97520.531250 67225.101562 26747.240234
97241.796875 67503.109375 26124.996094
97350.929688 67690.132812 26412.894531
60095.562500 49312.789062 14745.218750
60317.035156 49146.109375 14798.909180
60316.042969 49389.519531 14572.491211
60567.871094 49488.968750 14347.683594
60238.976562 49646.171875 14348.283203
61385.472656 49432.554688 13936.980469
61113.746094 49406.601562 14139.168945
61515.171875 49897.613281 13221.077148
61386.941406 49757.128906 13516.399414
61667.191406 49660.238281 13439.577148
92583.343750 75929.039062 21238.230469
92518.515625 75629.468750 20973.642578
92711.398438 75641.265625 21258.564453
61302.093750 49637.562500 13737.443359
61538.843750 49551.527344 13681.333984
62040.609375 49682.269531 13121.434570
61795.843750 49741.156250 13226.202148
61945.785156 49561.187500 13369.292969
62502.496094 49341.640625 13285.502930
62690.199219 49445.234375 12995.005859
62361.433594 49588.398438 13014.798828
62153.492188 49330.929688 13540.250000
62201.195312 49500.785156 13266.870117
62593.878906 49617.160156 12786.159180
62813.214844 49282.074219 13166.886719
62482.496094 49116.789062 13612.310547
62798.992188 49126.253906 13404.622070
52003.714844 49669.816406 25760.273438
51813.410156 49897.656250 25937.666016
51979.437500 49664.089844 26119.740234
51806.019531 49885.273438 26301.089844
52128.101562 50087.339844 24127.816406
52047.679688 50047.324219 24408.966797
52267.488281 49852.101562 24230.527344
52157.363281 49811.972656 24602.789062
52345.570312 49639.207031 24455.542969
51920.382812 50048.503906 24787.988281
51880.425781 49955.765625 25195.058594
52091.179688 49747.820312 24981.421875
52045.742188 49689.632812 25377.769531
51985.152344 49651.062500 26470.142578
52046.757813 49606.371094 26861.310547
51823.035156 49875.113281 26672.826172
51880.339844 49961.964844 27468.816406
52059.714844 49676.265625 27293.343750
51849.488281 49895.476562 27063.513672
52770.777344 49934.199219 23008.773438
52575.843750 49984.046875 23328.357422
52778.308594 49735.230469 23342.746094
97277.195312 67119.835938 26154.392578
52990.082031 50057.710938 22276.718750
52877.773438 50012.511719 22630.566406
53110.277344 49826.640625 22496.259766
53239.527344 49844.796875 22163.142578
52999.324219 49800.746094 22780.181641
52766.710938 49588.593750 23618.603516
52979.542969 49458.964844 23428.931641
53396.820312 50116.113281 20744.179688
53170.058594 50304.179688 20954.369141
53447.570312 49985.960938 21080.292969
53197.003906 50174.535156 21349.513672
53011.269531 50277.371094 21649.136719
53214.765625 50068.851562 21643.410156
53348.089844 49870.601562 21816.951172
54172.683594 49797.660156 18740.029297
53921.375000 50104.656250 18690.871094
53637.382813 50124.871094 19586.513672
53611.734375 50045.210938 20035.490234
53844.035156 49852.031250 19788.105469
53492.199219 50085.171875 20430.384766
53612.960938 49899.804688 20713.404297
53731.960938 49848.578125 20370.378906
54121.101562 50144.195312 18089.203125
53941.226562 50377.160156 18033.089844
53910.273437 50267.750000 18336.724609
92561.226562 72345.750000 56505.371094
92615.671875 72493.875000 56341.570313
92485.984375 72631.382812 56522.785156
92607.320312 72711.718750 56265.617188
54349.683594 50231.480469 17505.837891
54338.574219 50037.898438 17833.261719
54581.667969 49942.417969 17556.019531
96721.429688 67053.734375 24897.277344
96661.476562 67386.945312 24806.757812
96567.734375 67206.375000 24580.560547
54303.035156 49775.925781 18422.095703
54456.675781 49675.925781 18256.214844
54315.988281 49889.085938 18152.289062
55218.945312 50053.792969 16634.751953
55022.285156 50030.078125 16860.150391
55232.898438 49823.101562 16852.412109
54857.750000 50017.085938 17063.189453
54820.839844 49865.328125 17297.599609
55033.226562 49821.921875 17075.822266
55664.042969 49872.234375 16399.572266
55441.761719 49842.496094 16625.437500
55904.339844 49661.945312 16389.662109
55667.707031 50115.250000 16187.250000
55895.945312 49911.246094 16183.648438
56178.714844 50147.824219 15815.408203
56102.511719 49959.023438 16003.647461
56384.660156 49879.460938 15896.239258
56655.054688 49717.152344 15865.691406
56680.335938 49942.777344 15693.221680
57257.824219 49788.050781 15537.212891
56918.937500 49743.812500 15716.937500
57567.035156 49710.414062 15461.500977
57518.605469 49930.421875 15331.504883
57817.417969 49788.269531 15306.521484
57979.027344 49986.292969 15091.622070
57723.367188 50018.707031 15180.951172
58139.921875 49752.539062 15198.085938
58413.222656 49719.097656 15107.099609
58289.175781 49943.601562 14985.732422
58647.968750 49858.050781 14890.562500
58700.039062 50096.480469 14652.327148
58432.734375 50134.226562 14751.175781
58969.726562 49948.097656 14655.957031
59681.562500 49649.113281 14609.696289
59565.625000 49925.683594 14386.561523
59325.824219 49783.648438 14642.530273
60140.480469 49906.101562 14113.754883
59798.414062 50044.914062 14138.465820
59904.796875 49787.046875 14365.200195
60010.398438 49528.343750 14578.184570
60394.582031 50026.894531 13827.029297
60489.375000 49754.050781 14096.998047
60769.289062 49846.312500 13822.011719
61099.683594 49817.253906 13642.145508
60820.015625 49580.226562 14110.915039
61084.652344 49622.781250 13900.378906
61978.820312 49973.722656 12732.369141
61815.320312 49904.062500 12972.353516
62131.523438 49800.828125 12869.166016
62472.417969 49937.832031 12354.030273
62235.980469 49922.812500 12590.523438
62524.300781 49774.785156 12581.049805
62743.710938 50037.011719 11888.923828
62458.023438 50097.734375 12092.973633
62673.464844 49931.789062 12170.266602
62956.261719 49798.214844 12133.304688
62730.617188 49783.703125 12383.821289
63006.105469 49607.023438 12465.739258
62745.644531 49656.863281 12595.017578
51873.929688 50235.503906 24507.597656
51687.871094 50383.792969 24767.740234
51736.855469 50193.238281 25069.703125
51531.738281 50445.761719 25209.931641
51685.000000 50167.375000 25399.628906
51476.343750 50365.156250 25957.492187
51634.425781 50125.562500 26125.849609
51651.832031 50140.300781 25763.912109
51840.414062 49916.664062 25569.423828
51467.636719 50355.179688 26310.566406
51477.113281 50350.921875 26663.867188
51636.082031 50116.691406 26488.396484
51497.957031 50365.062500 27009.296875
51653.035156 50122.835938 26855.095703
51675.207031 50165.484375 27226.539062
51670.074219 50700.121094 24161.097656
51872.531250 50483.441406 24040.589844
51780.898438 50694.671875 23885.322266
51764.851562 50459.167969 24368.857422
51960.308594 50261.851562 24222.763672
52835.425781 50332.343750 22020.705078
52588.597656 50515.117188 22259.775391
52740.699219 50263.332031 22430.931641
52495.550781 50472.109375 22597.957031
52622.921875 50220.937500 22797.402344
52336.746094 50480.707031 22964.531250
52540.824219 49841.777344 23645.400391
52293.617188 50224.312500 23521.791016
52930.460938 50469.964844 21297.224609
52770.062500 50532.203125 21665.296875
53305.898438 50581.445312 19291.357422
53229.167969 50557.800781 19644.476562
53422.703125 50377.898438 19518.330078
53399.726562 50322.488281 19820.714844
93345.640625 71724.945312 55460.730469
93466.476562 71852.273438 55230.335938
93539.093750 71594.179688 55231.390625
53252.820312 50309.164062 20554.744141
53019.785156 50527.703125 20689.724609
53551.726563 50311.246094 19269.650391
53490.394531 50479.894531 18984.878906
54356.593750 50443.203125 17196.421875
54114.613281 50509.925781 17472.652344
96539.640625 67585.843750 24566.859375
96686.585938 67688.140625 24896.765625
96566.593750 67998.171875 24675.441406
96334.343750 67328.257812 24101.136719
96390.632812 67608.421875 24252.699219
96270.250000 67597.726562 24002.220703
96456.171875 67356.757812 24359.324219
54117.175781 50314.218750 17784.308594
53865.433594 50601.542969 17777.564453
54618.890625 50159.859375 17203.179688
54808.722656 50217.468750 16896.103516
54787.882813 50434.058594 16683.824219
55000.332031 50250.613281 16655.531250
54977.691406 50479.355469 16450.990234
55714.609375 50614.062500 15748.747070
55443.914063 50578.183594 15971.375977
55687.820312 50358.210938 15973.763672
55191.863281 50536.578125 16208.392578
55205.902344 50288.957031 16422.519531
55435.078125 50326.777344 16192.456055
55913.917969 50142.859375 15986.151367
55958.410156 50379.812500 15775.131836
56459.816406 50150.082031 15657.740234
56709.757813 50162.789062 15522.691406
56544.640625 50388.906250 15437.981445
95017.593750 68158.539062 21993.628906
94809.656250 68238.398438 21727.607422
94875.484375 67875.984375 21785.226562
56900.347656 50329.882812 15307.874023
56950.519531 50010.902344 15517.947266
57229.726562 50101.421875 15330.964844
57239.386719 50375.109375 15116.434570
57783.460938 50212.261719 14997.955078
58102.460937 50197.039062 14856.331055
57505.433594 50175.523438 15155.799805
58262.585938 50420.914062 14560.690430
58568.988281 50277.605469 14543.765625
58861.910156 50250.988281 14410.717773
59468.265625 50188.902344 14151.598633
59701.394531 50288.203125 13908.788086
59386.523438 50433.164062 13914.626953
59222.933594 50077.289062 14400.961914
59928.257812 50378.355469 13666.084961
60026.316406 50150.566406 13890.827148
60500.503906 50220.289062 13511.855469
60206.777344 50242.425781 13670.667969
60759.296875 50282.121094 13249.441406
61009.242188 50152.714844 13249.263672
60993.824219 50313.871094 13032.085938
60975.414062 50503.828125 12776.197266
61243.441406 50313.785156 12838.395508
60852.847656 50050.871094 13501.343750
61186.535156 49970.367188 13371.375000
95158.281250 67455.046875 22124.326172
95063.484375 67142.593750 21978.804688
95298.398438 67222.664062 22299.152344
61505.121094 50479.714844 12383.436523
61238.792969 50504.816406 12567.485352
61495.902344 50305.828125 12645.657227
61749.261719 50119.738281 12707.616211
61509.789062 50112.921875 12915.060547
93320.429688 72045.437500 55366.312500
93358.796875 72288.367188 55212.917969
93509.828125 72100.601562 55072.402344
61890.707031 50507.300781 11985.729492
61731.105469 50441.125000 12242.072266
61954.648438 50298.132812 12256.092773
62213.632812 50113.777344 12305.851562
61975.250000 50121.781250 12510.182617
93713.632812 71997.953125 54834.164062
93624.968750 71792.414062 55030.761719
93099.484375 67278.226562 19515.966797
93331.875000 67145.664062 19807.101562
93248.781250 67470.929688 19711.482422
94302.156250 67453.984375 21022.263672
94179.070312 67699.851562 20876.414062
94122.554688 67352.929688 20791.085938
62447.253906 50258.691406 11815.429688
93637.039062 72295.617188 54827.507813
63116.882812 50016.414062 11317.603516
62846.609375 50213.609375 11323.502930
62949.175781 50038.574219 11593.933594
51470.765625 50642.488281 24911.486328
51297.902344 50797.109375 25228.259766
51213.511719 50823.054688 25628.435547
51370.230469 50604.503906 25494.714844
51501.937500 50383.359375 25603.806641
51335.117188 50597.234375 25800.503906
51178.492188 50823.699219 25975.445312
51315.496094 50590.984375 26140.597656
51169.335938 50817.667969 26315.349609
51316.484375 50583.640625 26485.425781
51334.996094 50582.648438 26829.443359
51180.695312 50812.304688 26655.685547
51371.578125 50578.808594 27123.945312
51336.585938 50718.648438 27389.431641
51509.398438 50433.781250 27344.412109
51807.437500 50812.082031 23606.369141
51586.375000 50950.617188 23909.097656
51495.792969 50908.800781 24238.412109
51532.589844 50714.972656 24532.126953
52247.625000 50944.765625 22198.261719
52162.277344 50894.250000 22561.294922
52373.664062 50703.605469 22413.779297
52287.773438 50676.351562 22698.478516
51984.953125 50516.621094 23713.273438
52086.140625 50603.855469 23320.806641
52642.890625 50759.761719 21393.970703
52431.957031 50934.648438 21615.644531
52577.683594 50737.707031 21701.896484
93296.968750 72535.679688 55207.996094
93461.710938 72421.437500 55017.289062
