1230
55403.921875 75801.281250 36685.253906
55468.660156 75946.828125 36928.582031
55475.339844 75805.460938 37220.804688
55446.214844 75669.414062 37536.726562
55467.019531 75878.164062 37865.976562
55518.398438 76012.750000 37481.011719
55372.957031 75651.382812 38096.695312
55291.304688 75606.476562 38364.347656
55410.054688 75879.625000 38246.070312
55167.289062 75551.265625 38665.175781
55176.765625 75786.453125 38901.093750
55313.457031 75843.687500 38577.003906
55526.242188 76139.765625 31294.806641
55585.539063 75876.367188 31575.484375
55648.386719 75694.070312 31914.021484
55731.437500 76062.164062 31918.658203
55643.718750 75484.109375 32199.226562
55727.437500 75856.804688 32286.580078
55669.125000 75580.226562 32484.062500
55688.617187 75820.460938 32685.931641
55568.363281 75753.054688 33074.710938
50855.562500 76263.625000 42528.820312
50693.644531 75982.085938 42481.906250
51292.964844 76068.062500 42162.171875
51501.988281 76273.437500 42156.015625
51191.421875 76293.210938 42340.074219
51876.570312 76231.859375 41956.562500
51530.160156 75977.851562 42000.019531
52052.886719 75957.101562 41749.449219
52250.664063 76187.765625 41764.828125
52546.558594 76109.273438 41604.144531
52297.554688 75892.312500 41617.304688
52852.289062 76335.031250 41577.699219
52819.234375 76006.195312 41440.914062
53053.824219 76162.218750 41404.320312
53355.812500 76185.015625 41268.324219
53090.503906 75913.828125 41270.730469
53398.546875 75806.367188 41052.128906
54254.824219 76040.437500 40576.472656
54021.496094 75778.828125 40605.121094
53977.785156 76050.210938 40811.320312
54522.410156 76061.179688 40317.050781
54483.519531 76304.382812 40548.152344
54736.296875 76351.789062 40302.339844
55181.804688 76020.601562 39158.636719
55012.750000 75961.203125 39470.746094
55195.167969 76263.179688 39408.804688
12252.414062 72709.304688 37986.488281
55309.636719 76314.296875 30745.732422
55466.933594 76371.179688 31047.056641
55345.757813 76071.773438 30987.359375
55390.894531 76296.101562 33670.265625
55182.156250 76225.382812 34094.816406
55066.976562 76326.687500 34478.843750
55016.687500 75673.507812 35280.656250
55067.203125 76024.710938 35388.347656
55161.562500 76122.242188 35718.539062
55350.828125 76182.726562 36305.265625
55449.832031 76411.601562 36562.781250
55427.859375 76083.796875 36631.128906
55517.683594 76309.062500 36931.785156
55521.351562 76091.109375 37180.496094
55445.125000 76139.875000 38458.679688
55344.613281 76127.609375 38826.929688
55481.210938 76376.781250 38641.011719
55317.464844 76289.140625 39122.511719
55629.039062 76473.257812 31329.439453
55690.527344 76260.851562 31604.328125
55823.574219 76295.578125 32247.972656
55767.710938 76109.718750 32557.990234
55693.031250 76169.757812 32932.421875
55820.609375 76435.320312 32628.064453
55541.839844 76092.585938 33295.031250
55601.644531 76421.273438 33283.554688
55575.968750 76376.125000 37347.042969
55516.574219 76185.671875 38106.636719
55560.621094 76255.007812 37737.871094
50701.425781 76519.242188 42781.656250
50848.476562 76854.320312 42921.285156
51090.359375 76615.734375 42600.519531
51436.218750 76836.695312 42542.601562
51434.242188 76548.039062 42350.648438
51698.472656 76496.773438 42178.222656
51982.636719 76660.765625 42135.574219
51702.050781 76752.796875 42335.250000
52227.648438 76495.867188 41926.429688
52521.648438 76416.921875 41757.785156
52783.003906 76650.875000 41768.664062
52489.628906 76700.421875 41920.812500
53157.628906 76372.132812 41459.460938
53425.511719 76562.820312 41435.535156
53097.699219 76615.171875 41614.093750
53712.628906 76654.601562 41341.414062
53677.945312 76400.578125 41212.183594
53682.843750 76090.164062 41033.519531
53948.089844 76329.187500 41003.203125
54193.085937 76566.054688 40977.425781
53932.992188 76605.945312 41182.058594
54692.058594 76553.906250 40524.820312
54450.910156 76544.531250 40752.871094
54667.699219 76773.468750 40719.191406
55012.648438 76210.562500 39735.175781
54782.113281 76130.257812 40039.203125
55004.968750 76482.835938 40033.132812
54888.972656 76588.515625 40318.843750
55326.367188 76617.140625 30538.490234
55478.886719 76820.617188 30814.576172
55419.375000 76968.476562 30531.669922
55423.546875 76558.625000 30845.880859
55351.375000 76718.093750 33845.390625
55253.894531 76991.656250 34103.097656
55174.058594 76626.476562 34231.687500
55137.613281 76992.062500 34465.812500
55068.113281 76652.140625 34652.441406
55079.640625 76997.734375 34885.386719
55021.519531 76334.804688 34828.015625
55001.734375 75981.906250 34991.195312
55041.500000 76315.492188 35163.976562
55092.652344 76857.585938 35235.597656
55046.882812 76622.414062 35010.523438
55078.625000 76570.367188 35290.003906
55109.355469 76358.242188 35476.234375
55189.675781 76421.671875 35732.816406
55465.285156 76732.210938 36482.925781
55376.476562 76851.828125 36169.433594
55365.539062 76517.492188 36237.585938
55263.222656 76300.835938 35990.089844
55384.406250 76581.078125 39287.128906
55447.171875 76475.000000 38923.925781
55537.414062 76797.484375 39014.218750
55218.652344 76527.867188 39662.199219
55251.386719 76796.171875 39914.496094
55557.480469 76665.554688 31076.121094
55630.949219 76968.640625 31079.845703
55710.773437 76794.203125 31346.093750
55907.847656 76685.414062 32333.080078
55899.089844 76763.015625 31961.890625
55877.449219 76537.015625 32111.123047
55815.132812 76417.757812 31907.832031
55878.437500 76794.375000 32702.478516
55756.335938 76582.789062 32976.132812
55660.359375 76770.234375 33274.117188
55509.738281 76633.382812 33530.351562
10152.581055 73092.085938 33551.269531
55535.523438 76645.046875 36791.093750
55583.785156 76604.882812 37084.835938
55639.843750 76794.125000 37367.074219
55619.261719 76557.062500 37642.300781
55604.574219 76522.312500 37972.851562
55665.167969 76836.687500 37778.363281
55554.812500 76459.968750 38342.078125
55577.156250 76713.648438 38640.664062
55653.667969 76850.671875 38212.402344
51044.984375 77108.710938 42993.851562
50811.253906 77119.343750 43166.152344
51200.480469 76965.296875 42780.351562
51481.074219 77089.593750 42706.992188
52262.023438 76752.210938 42052.871094
52184.339844 76945.718750 42217.140625
52114.589844 77237.890625 42471.152344
51940.699219 76927.898438 42329.718750
52650.285156 77162.398438 42141.261719
52721.953125 76921.523438 41951.027344
52444.035156 76940.562500 42086.785156
52382.160156 77139.453125 42254.132812
53263.945313 77129.929688 41843.484375
53335.593750 76862.781250 41648.359375
53026.554688 76893.671875 41802.613281
53623.589844 76852.531250 41505.277344
53799.554687 77064.195312 41543.035156
53559.898438 77103.054688 41689.527344
54092.843750 77162.554688 41434.640625
53889.937500 76863.179688 41366.503906
54168.261719 76851.250000 41179.730469
54465.890625 77132.671875 41155.628906
55078.660156 76783.695312 40227.796875
55091.140625 77022.984375 40444.535156
54888.703125 76783.156250 40490.277344
54868.589844 77002.906250 40697.824219
55406.800781 77105.125000 30217.826172
55328.132812 76824.570312 30288.185547
55530.285156 76975.500000 33563.375000
55380.777344 77043.492188 33840.871094
55474.062500 77292.796875 33723.425781
55162.207031 77474.367188 35295.003906
55168.148438 77096.328125 35475.148438
55277.558594 77405.070312 35738.058594
55484.632812 77060.265625 36436.796875
55408.636719 76845.375000 39573.839844
55446.308594 77106.500000 39822.972656
55504.195312 77298.710938 30505.873047
55554.781250 77136.945312 30806.384766
55781.660156 77101.289062 31349.460938
55986.792969 77190.906250 31932.992188
55902.105469 77219.921875 31587.382812
55853.304688 76945.625000 31632.152344
55923.011719 77127.070312 32769.742188
55806.109375 76928.664062 33007.265625
55713.277344 77102.898438 33260.882812
55544.859375 76918.890625 36694.617188
55603.187500 76897.226562 36983.281250
55665.808594 77160.664062 37188.425781
55700.691406 77133.234375 37548.613281
55718.789062 77173.570312 37925.113281
55727.042969 77242.796875 38292.941406
55672.148438 77028.570312 38519.531250
55724.726562 77307.546875 38626.414062
55645.519531 77045.062500 38812.261719
55617.859375 77101.914062 39120.679688
55513.296875 76898.078125 39291.132812
55579.257812 77184.140625 39455.210938
13700.841797 72776.640625 40430.582031
13589.431641 72354.898438 40518.027344
55972.984375 76969.148438 32195.742188
56020.742188 77189.375000 32264.798828
55970.636719 77021.609375 32467.960938
51056.933594 77319.437500 43178.226562
50585.085938 77587.703125 43875.714844
50821.410156 77570.140625 43632.214844
50568.914062 77366.148438 43619.339844
13145.931641 72815.468750 39539.390625
51332.253906 77264.296875 42945.574219
51303.730469 77514.359375 43196.289062
12571.933594 72341.953125 38900.152344
51725.304688 77337.414062 42771.542969
52536.703125 77396.093750 42368.753906
52346.531250 77534.093750 42579.828125
51730.703125 77032.234375 42520.289062
52881.488281 77397.164062 42199.640625
52822.410156 77633.218750 42407.152344
53196.976562 77381.156250 42041.082031
53498.328125 77352.304688 41880.566406
52955.832031 77153.367188 41996.085938
53822.003906 77335.750000 41707.503906
54115.582031 77453.179688 41624.195312
54389.390625 77449.976562 41447.417969
55076.152344 77261.226562 40688.472656
54650.292969 76982.851562 40893.996094
54808.710937 77227.656250 40941.503906
55392.957031 77587.875000 33959.949219
55232.671875 77321.664062 34259.578125
55242.960938 77746.960938 34414.570312
55138.101562 77352.210938 34653.066406
55154.699219 77696.281250 34906.609375
55107.902344 77338.695312 34985.468750
55105.460938 77155.117188 35177.867188
55472.988281 77350.039062 40085.707031
55284.515625 77052.539062 40151.285156
55488.269531 77583.156250 40353.734375
55294.898438 77525.421875 40656.070312
55486.535156 77793.804688 40626.636719
55295.632812 77291.718750 40400.027344
55056.894531 77538.781250 40968.273438
55570.691406 77616.773438 29837.908203
55504.953125 77453.867188 30170.388672
55607.156250 77821.460938 30153.662109
55594.738281 77645.367188 30486.671875
55638.269531 77470.539062 30802.533203
55709.164062 77285.398438 31088.802734
55808.050781 77639.156250 31117.128906
55858.519531 77393.265625 31370.132812
55782.214844 77459.210938 33213.519531
55841.582031 77211.039062 33028.460938
55623.656250 77288.414062 33462.968750
55610.753906 77619.312500 33558.523438
55501.199219 77397.070312 36386.507812
55597.019531 77270.757812 36772.925781
55688.605469 77505.109375 37102.253906
55750.671875 77735.312500 37404.160156
55717.843750 77393.335938 37377.875000
55749.250000 77466.195312 37678.832031
55771.464844 77529.359375 38050.589844
55683.085938 77361.453125 39206.492188
55709.757813 77555.585938 39418.718750
8752.959961 72926.031250 30243.814453
8608.681641 72633.179688 30110.488281
55609.972656 77437.796875 39749.988281
55984.718750 77474.031250 31655.246094
56071.722656 77830.070312 31659.537109
56080.417969 77578.281250 31960.195313
56062.925781 77398.687500 32194.992187
56026.859375 77368.890625 32507.273438
55936.253906 77443.578125 32868.730469
8456.147461 72338.656250 29939.951172
50838.101562 77791.015625 43884.003906
50609.226562 77809.757812 44139.734375
51058.175781 77544.796875 43407.195312
51301.417969 77739.531250 43428.183594
51066.125000 77766.437500 43647.054688
51550.015625 77711.640625 43222.453125
51542.222656 77936.820312 43456.519531
51817.687500 77921.398438 43250.796875
52087.269531 77575.007812 42764.144531
52421.496094 77805.328125 42769.007812
51804.933594 77653.835938 43003.707031
52110.511719 77872.476562 43017.085938
52575.152344 77646.218750 42545.996094
52966.636719 78080.101562 42700.843750
53061.472656 77862.507812 42470.304688
52752.421875 77850.007812 42620.675781
53136.890625 77626.726562 42248.046875
53421.847656 77868.585938 42296.546875
53443.070312 77593.218750 42076.519531
53602.496094 78139.757812 42425.792969
53281.738281 78103.046875 42557.042969
53986.667969 77661.671875 41849.582031
54289.750000 77662.703125 41672.308594
54303.570313 77934.015625 41877.375000
53973.527344 77941.015625 42071.640625
18457.617188 72126.765625 48354.667969
54721.207031 77480.937500 41225.125000
54945.339844 77738.234375 41255.667969
55181.328125 77829.132812 35231.812500
55183.687500 78027.281250 35043.339844
55244.519531 78147.156250 35370.929688
55245.750000 77774.101562 35537.992188
55335.933594 78031.789062 35753.128906
55430.664062 77892.007812 36061.976562
55336.105469 77734.500000 35834.039062
55409.476562 77559.531250 36078.531250
55308.160156 77729.742188 40860.453125
55207.550781 77852.804688 41103.917969
55691.128906 78000.960938 30478.621094
55848.765625 77955.718750 31026.109375
55809.523438 78145.789062 30787.371094
55720.871094 77810.820312 30787.867188
55961.941406 78312.554688 33101.843750
55878.750000 78055.109375 33187.097656
55823.507812 78328.539062 33360.429688
55783.187500 77786.945312 33295.195312
55695.429687 78028.781250 33507.605469
55598.257812 77834.210938 36580.550781
55579.164062 77577.929688 36579.535156
55647.964844 77683.812500 36818.941406
55670.042969 78117.250000 36808.921875
55710.371094 77828.648438 37080.117188
55797.015625 77859.445312 37800.894531
55818.332031 77863.203125 38201.566406
55781.054688 77577.445312 38417.242188
55779.390625 77615.031250 38762.085938
55834.152344 77926.296875 38916.085938
55763.210938 77625.265625 39094.656250
55822.914062 77940.554688 39313.976562
55743.542969 77783.429688 39691.269531
55636.375000 77664.289062 40024.941406
55757.367187 77940.281250 39959.183594
55669.253906 77914.226562 40302.410156
55960.113281 77917.054688 31304.664062
56162.921875 77922.898438 32023.324219
56110.558594 77674.101562 32293.296875
56049.996094 77733.468750 32657.613281
56166.714844 78063.132812 32410.212891
55922.449219 77763.320312 33012.289062
50647.679688 78036.476562 44393.003906
50900.164062 78218.429688 44351.476562
50863.664062 78009.039062 44130.820312
50722.082031 78267.148438 44595.277344
50588.542969 78343.039062 44820.574219
51084.113281 77984.906250 43886.710938
51336.265625 78172.343750 43879.058594
51304.781250 77955.687500 43660.093750
51110.781250 78198.093750 44116.273438
51368.066406 78391.796875 44103.972656
51518.960938 78120.898438 43669.550781
51776.503906 78161.132812 43521.363281
51652.242188 78363.843750 43832.839844
52675.101562 78059.765625 42845.050781
52869.527344 78246.945312 42898.964844
52897.894531 78458.507812 43073.878906
53200.519531 78654.210938 43079.906250
53177.035156 78350.273438 42823.210938
53479.105469 78313.765625 42634.867188
53776.960937 78387.000000 42548.542969
53728.046875 77980.132812 42231.324219
53569.691406 78590.359375 42830.363281
54177.667969 78123.281250 42109.050781
17621.878906 71426.382812 47284.960938
54432.804688 78223.015625 42046.910156
54610.234375 78112.460938 41835.281250
54730.214844 78359.640625 41980.984375
54991.281250 78480.156250 41908.785156
40800.585938 97002.843750 37355.382812
55253.296875 78371.156250 34629.535156
55207.199219 78070.000000 34722.585938
55226.125000 78367.617188 34982.976562
55354.460938 78412.609375 35703.609375
55454.414062 78482.796875 36000.023438
55426.468750 78717.148438 35865.089844
55375.093750 78155.085938 41189.890625
55449.542969 77973.632812 40901.265625
55617.066406 78272.750000 40926.539062
55267.027344 78331.039062 41494.132812
55719.417969 78218.007812 30131.369141
55895.960938 78485.039062 30786.001953
55784.519531 78343.210938 30501.166016
55806.179688 78565.796875 30260.857422
50233.578125 60492.628906 13762.103516
55682.628906 78329.085938 33602.226562
55586.765625 78491.562500 33809.562500
55439.148438 78214.929688 36013.140625
55518.828125 78379.195312 36212.726562
55544.214844 78083.328125 36357.031250
55761.515625 78130.992188 37283.867188
55825.917969 78301.320312 37718.105469
55838.484375 78125.101562 38035.593750
55860.511719 78173.460938 38346.894531
55880.203125 78220.250000 38698.582031
55900.894531 78492.851562 38459.148438
55830.781250 77899.648438 38560.050781
55891.843750 78238.039062 39048.742188
55934.820313 78569.781250 38843.015625
55857.363281 78166.031250 39685.468750
55928.242187 78479.195312 39919.769531
55958.167969 78562.804688 39496.164062
55820.808594 78183.515625 40092.574219
55640.574219 78078.328125 40637.070312
55769.351562 78189.093750 40393.769531
56039.914062 78672.234375 31040.648438
55970.378906 78267.750000 31114.587891
56140.289063 78525.070312 31362.367188
56101.574219 78177.101562 31483.332031
56227.183594 78421.398438 31695.111328
56180.296875 78124.640625 31778.634766
56251.667969 78304.140625 32053.544922
56253.378906 78430.539062 32378.802734
56164.628906 78321.570312 32635.357422
56044.359375 78098.203125 32843.382812
50939.968750 78397.171875 44519.980469
50840.484375 78527.914062 44757.792969
51116.972656 78580.679688 44548.394531
50830.214844 78791.296875 45007.136719
51090.132812 78785.992188 44775.609375
51363.820312 78595.679688 44337.273438
51631.898438 78609.101562 44119.828125
51346.195312 78792.921875 44560.218750
51599.722656 78803.835938 44357.421875
51936.359375 78642.187500 43910.984375
52647.351562 78278.382812 43057.718750
52890.656250 78712.984375 43314.867188
53499.312500 78876.429688 43118.523438
53846.515625 78884.984375 42955.640625
54242.531250 78336.125000 42258.960938
54058.078125 78430.085938 42442.968750
54312.785156 78580.031250 42445.046875
54080.742188 79132.953125 43077.250000
54164.050781 78935.640625 42853.949219
54537.699219 78478.484375 42218.886719
54630.214844 78738.125000 42420.855469
33524.167969 50084.628906 35264.023438
54884.640625 78643.546875 42155.839844
55345.660156 78876.468750 34508.320312
55274.300781 78655.601562 34727.203125
55311.742188 79028.101562 34844.671875
55266.601562 78720.648438 35046.746094
55324.613281 78987.953125 35333.757812
55280.558594 78561.257812 35338.890625
55347.386719 78724.070312 35587.156250
55428.121094 78622.554688 41628.273438
55588.460938 78518.187500 41261.964844
55173.914062 78471.148438 41741.019531
55234.015625 78708.968750 41939.484375
55753.464844 78603.367188 33547.691406
55846.757813 78978.054688 33480.246094
55631.511719 78854.375000 33823.863281
55491.257812 79056.312500 35999.062500
55537.347656 78686.195312 36214.589844
55612.210938 79020.257812 36409.457031
55636.144531 78721.367188 36535.648438
55703.328125 78918.312500 36768.722656
55605.542969 78424.250000 36487.191406
55693.984375 78556.257812 36794.566406
55763.296875 78742.171875 37083.894531
55799.753906 78535.398438 37371.785156
55848.820313 78715.820312 37671.367188
55919.343750 78658.906250 40535.406250
55781.828125 78363.343750 40619.703125
55800.164063 78588.703125 40888.425781
55703.648438 78843.875000 41496.160156
55855.093750 78856.945312 41151.707031
55854.964844 78619.796875 30534.474609
55877.949219 78839.359375 30387.089844
55954.582031 78847.804688 30710.832031
14186.780273 70779.007812 42438.679688
56322.613281 78682.851562 31943.509766
56306.339844 78545.781250 32179.462891
56316.984375 78809.265625 32358.251953
56204.539062 78597.750000 32653.224609
56081.316406 78449.195312 32898.093750
56112.273438 78754.148438 32934.742188
56021.890625 78943.015625 33167.660156
55946.648438 78625.359375 33214.785156
55888.609375 78906.203125 37936.082031
55869.789062 78617.218750 37929.957031
55902.328125 78730.710938 38206.000000
55869.496094 78411.507812 38116.425781
55939.140625 78828.835938 38532.472656
55983.078125 78772.625000 39148.402344
55939.960937 78483.195312 39173.222656
56029.667969 78958.570312 39443.023438
56016.339844 78822.031250 39797.562500
55877.582031 78429.578125 40291.390625
55984.312500 78731.906250 40171.835938
50801.160156 79066.398438 45231.519531
51071.832031 79033.226562 44997.925781
51328.820312 79011.554688 44776.695312
51579.894531 78998.367188 44567.355469
51875.582031 78844.640625 44176.382812
52091.785156 79117.242188 44290.609375
51797.851562 78988.898438 44388.132812
52425.332031 79144.640625 44070.699219
52719.835938 79188.085938 43902.113281
52986.898438 79260.523438 43794.035156
53192.656250 78927.640625 43335.226562
53459.105469 79086.250000 43332.144531
53261.359375 79218.421875 43579.945312
53740.820312 79102.765625 43204.671875
54304.539062 79380.820312 43226.203125
53944.847656 79327.429688 43328.773438
54389.058594 78843.710938 42658.000000
54730.734375 79004.851562 42639.398438
54474.332031 79152.648438 42918.945312
54699.507812 79467.671875 43142.500000
54935.613281 78899.257812 42400.433594
54940.167969 79309.054688 42846.945312
55023.039063 79114.460938 42583.113281
55413.949219 79234.531250 34437.699219
55393.359375 78941.867188 35689.902344
55406.855469 79227.601562 35659.804688
55555.339844 78888.937500 41799.531250
55142.296875 78862.515625 42201.695312
55301.210938 79324.742188 42628.488281
55218.906250 79068.953125 42384.531250
55720.957031 79120.062500 33728.718750
55459.480469 78901.523438 34189.246094
55598.968750 79249.343750 33991.566406
17713.382812 70790.656250 47622.941406
17525.933594 70729.023438 47404.523438
17605.919922 71055.625000 47391.585938
55777.304688 79123.109375 37085.460938
55848.718750 79303.632812 37473.675781
55822.113281 78906.187500 37395.046875
55864.808594 79014.960938 37671.835938
55949.972656 79154.906250 41416.656250
55778.035156 79055.914062 41686.039062
55697.437500 79111.351562 41909.695312
55935.382812 79398.812500 30104.558594
55937.539062 79066.960938 30497.238281
56019.531250 79206.554688 30714.263672
56093.402344 79029.070312 30988.138672
56185.605469 78874.171875 31277.863281
56307.246094 79069.210938 31494.412109
56270.656250 78750.812500 31581.527344
56356.410156 78956.039062 31749.439453
56394.281250 79051.679688 32020.080078
56226.550781 78865.085938 32711.632812
56295.792969 79136.007812 32649.650391
56158.355469 79061.656250 32943.320312
55933.171875 79105.140625 38254.253906
55980.011719 79416.359375 38494.367188
55970.320312 79119.171875 38587.851562
56010.808594 79303.054688 38820.125000
55980.300781 78951.273438 38840.125000
56027.597656 79131.140625 39123.777344
56078.761719 79323.500000 39415.121094
56081.886719 79168.507812 39723.078125
56072.082031 79060.578125 40065.515625
56136.214844 79397.953125 39976.855469
56039.261719 78973.906250 40425.433594
56131.464844 79299.937500 40317.171875
55971.363281 78905.289062 40786.832031
56046.667969 79171.421875 41023.851562
56104.265625 79223.210938 40665.722656
14229.072266 70550.625000 42646.203125
56401.984375 79240.851562 32328.492188
51040.628906 79596.031250 45377.863281
51050.800781 79305.250000 45202.117188
50775.628906 79372.156250 45427.847656
51283.460938 79517.453125 45176.902344
51570.078125 79225.164062 44772.175781
51309.433594 79258.773438 44985.761719
51544.949219 79479.164062 44980.058594
52087.781250 79642.898438 44761.167969
52106.167969 79391.671875 44540.085938
51823.312500 79438.531250 44767.375000
52635.785156 79342.671875 44123.640625
52399.480469 79365.843750 44314.562500
52730.187500 79588.695312 44311.281250
52388.503906 79613.437500 44552.074219
11717.236328 71270.132812 37953.914062
11589.248047 70921.093750 37956.628906
52896.121094 79418.398438 44022.812500
53108.542969 79653.820312 44142.316406
53202.832031 79457.406250 43868.078125
53530.421875 79477.164062 43699.480469
53457.816406 79685.648438 43976.949219
53858.441406 79702.070312 43791.160156
54118.460938 79556.281250 43497.546875
53810.875000 79476.023438 43548.921875
54873.984375 79722.812500 43352.527344
54500.285156 79632.593750 43416.816406
54688.175781 79862.515625 43611.968750
55079.855469 79604.796875 43108.101562
24167.392578 44899.968750 26494.496094
55358.746094 79663.421875 34923.691406
55328.867188 79342.039062 35090.363281
55361.382813 79629.929688 35264.199219
55358.566406 79359.593750 35396.394531
55264.210938 79518.265625 42897.566406
55682.234375 79677.859375 33932.296875
55521.589844 79561.703125 34229.933594
55419.394531 79646.890625 34555.578125
55348.917969 79382.742188 34769.460938
55421.867188 79610.421875 35620.292969
55485.570312 79413.492188 35909.191406
55533.187500 79785.281250 36017.796875
55581.289062 79394.007812 36246.453125
55651.800781 79748.960938 36454.218750
55699.027344 79349.648438 36692.808594
55738.054688 79730.289062 36798.605469
55791.800781 79524.968750 37089.101562
55898.808594 79236.390625 37876.226562
55901.066406 79591.906250 37775.687500
55928.554688 79307.093750 41787.847656
55927.332031 79557.195312 42270.906250
55996.835938 79502.335938 42029.003906
55741.421875 79311.875000 42144.054688
55477.894531 79236.976562 42359.531250
55678.976562 79495.539062 42506.054688
10784.905273 70733.742188 36380.351562
10998.375000 71072.375000 36546.500000
10937.974609 70671.171875 36686.621094
55963.398437 79335.101562 30428.093750
55969.976563 79649.414062 30329.578125
56057.292969 79585.718750 30681.369141
56138.457031 79363.539062 30964.476562
56223.113281 79200.703125 31220.619141
56333.296875 79391.179688 31434.640625
56246.488281 79469.648438 31183.333984
56377.347656 79483.914062 32604.841797
56231.273438 79394.937500 32915.156250
56326.425781 79743.187500 32851.261719
56034.324219 79294.492188 33246.238281
56062.222656 79504.125000 39112.984375
56121.398438 79724.101562 39449.101562
56124.050781 79475.312500 39681.476562
56178.359375 79771.765625 39870.453125
56196.152344 79627.382812 40225.367188
56199.714844 79539.656250 40547.523438
56253.519531 79801.523438 40443.988281
56184.882812 79478.914062 40880.550781
56289.046875 79818.234375 40751.527344
56150.195312 79443.351562 41221.390625
56267.972656 79697.257812 41066.968750
56105.375000 79445.429688 41524.437500
56159.398438 79610.218750 41778.398438
10761.397461 70431.203125 36528.843750
56283.570312 79740.023438 41406.933594
56397.765625 79251.617188 31731.660156
56453.824219 79413.195312 32016.955078
56472.457031 79595.210938 32296.818359
50766.675781 79703.085938 45593.757812
50742.335938 80052.164062 45760.492188
51090.105469 79937.437500 45525.105469
51415.539062 79962.218750 45358.097656
51263.355469 79747.453125 45325.035156
51656.652344 79936.398438 45207.816406
51491.250000 79726.734375 45175.511719
51919.359375 80022.242188 45120.402344
51797.718750 79726.218750 44992.906250
52073.609375 79858.796875 44929.632812
52234.628906 80069.312500 44990.535156
52660.082031 79854.234375 44601.589844
52333.890625 79850.601562 44780.125000
53011.757812 79867.226562 44419.574219
52931.066406 80131.414062 44700.097656
10986.882812 71467.523438 36287.414062
10796.082031 71066.492188 36195.976562
53363.222656 65307.335938 13908.876953
53274.148438 80086.804688 44503.667969
53358.214844 79884.039062 44253.078125
53705.984375 79908.906250 44109.312500
54297.937500 79793.531250 43699.609375
54108.476563 79986.554688 44022.320312
54511.769531 80013.445312 43884.746094
55044.601562 79941.265625 43545.785156
54866.875000 80069.492188 43802.980469
55413.890625 80039.476562 34734.781250
55375.113281 79938.250000 35128.203125
55394.605469 79864.984375 35412.804688
55477.136719 79790.125000 43096.886719
18131.441406 70589.054688 48240.406250
55183.066406 79816.921875 43311.375000
19880.513672 74048.289062 8511.502930
55758.582031 80050.523438 33874.976562
55949.382813 80155.484375 33597.226562
55555.480469 79999.296875 34257.281250
55680.335938 80283.609375 34035.285156
19775.175781 74418.015625 8508.038086
55451.355469 79996.093750 35668.171875
55404.230469 80152.757812 35372.781250
55799.730469 79921.437500 37072.265625
55503.167969 79573.835938 42791.019531
55773.367188 79757.218750 42801.753906
55384.691406 80010.570312 43458.652344
55726.347656 80075.906250 43333.277344
55955.433594 79900.437500 30218.726562
56025.171875 79964.625000 30510.814453
55961.980469 80171.515625 30239.179688
56129.335938 79891.789062 30812.660156
56192.308594 79676.062500 31004.658203
56258.542969 80024.968750 31093.705078
56254.250000 80019.984375 33080.164062
55902.843750 79946.804688 37708.765625
55936.414062 80122.585938 37941.296875
55941.550781 79493.546875 38138.531250
55942.265625 79844.218750 38037.023438
55976.718750 80146.007812 38265.394531
55983.289062 79771.914062 38385.488281
56017.648438 80024.007812 38591.125000
56031.546875 79714.656250 38778.109375
56066.578125 80149.320312 38928.363281
56084.597656 79840.796875 39118.101562
56125.285156 80107.281250 39328.015625
56169.160156 80041.140625 39638.617188
56224.550781 80171.640625 39930.707031
56247.359375 79956.023438 40203.144531
56310.941406 80062.414062 40495.371094
56372.175781 80131.023438 40755.515625
56379.234375 80368.921875 40567.207031
56388.500000 80020.304688 41075.042969
56395.863281 79947.796875 41766.214844
56185.636719 79763.906250 42140.011719
56456.839844 80057.890625 42138.023438
56001.964844 79752.273438 42507.066406
56407.847656 80016.039062 31469.949219
56320.406250 79705.796875 31308.880859
56435.777344 79647.687500 31692.792969
56502.296875 79720.492188 32025.244141
56519.117188 80043.171875 31879.177734
56528.570313 79917.492188 32233.011719
56458.523438 79823.914062 32541.828125
56418.851562 80083.515625 32767.246094
56447.378906 80055.296875 41415.199219
50676.859375 80404.179688 45945.324219
51328.898438 80176.960938 45521.589844
51395.785156 80407.234375 45610.937500
51067.527344 80328.875000 45730.171875
51673.324219 80253.226562 45387.980469
52093.285156 80304.726562 45213.375000
52555.289062 80084.210938 44842.316406
52731.464844 80304.398438 44923.660156
52438.953125 80313.546875 45058.855469
52690.941406 80551.523438 45111.480469
53590.164062 80085.804688 44361.082031
53509.054688 80274.796875 44584.738281
53233.406250 80281.593750 44698.796875
53041.875000 80458.414062 44910.550781
53402.250000 80473.093750 44794.992188
53726.246094 80473.132812 44686.683594
53870.058594 80094.367188 44251.113281
53817.535156 80266.023438 44458.789062
54130.058594 80229.171875 44301.558594
54394.277344 80169.101562 44130.031250
54076.621094 80458.101562 44559.421875
54520.957031 80424.945312 44381.605469
54706.082031 80213.875000 44062.941406
54931.261719 80392.359375 44205.218750
55006.164062 80241.046875 43975.007812
55391.089844 80280.632812 35056.699219
55407.585938 80488.367188 35329.441406
55208.781250 80153.515625 43755.523438
55298.867188 80388.109375 44045.257812
55828.484375 80372.609375 33810.101562
56007.132812 80493.578125 33567.164062
55712.132812 80567.023438 34009.062500
55576.527344 80422.179688 34243.937500
55478.230469 80304.156250 34488.750000
55488.500000 80612.554688 34480.511719
55419.351562 80442.242188 34751.585938
55395.675781 80628.773438 35028.789062
55454.039062 80354.656250 35634.894531
55446.398438 80703.976562 35590.847656
55516.539062 80576.789062 35901.136719
55584.867188 80438.148438 36159.832031
55615.480469 80128.148438 36285.429688
55664.523438 80465.414062 36458.257812
55720.941406 80115.195312 36696.613281
55743.164062 80493.460938 36776.371094
55802.406250 80316.242188 37061.519531
55968.304687 80281.187500 43494.449219
56040.039062 80138.796875 43176.378906
55602.773438 80264.765625 43706.625000
55963.296875 80459.664062 30255.855469
56030.421875 80348.640625 30505.544922
56132.718750 80196.242188 30782.353516
56131.195312 80539.445312 30755.904297
56251.589844 80396.828125 31026.474609
56145.226562 80278.406250 33322.089844
55944.609375 80400.656250 37996.800781
14545.162109 43213.433594 16375.013672
56020.542969 80340.757812 38590.343750
56056.640625 80553.507812 38866.992188
56111.707031 80456.593750 39215.140625
56177.910156 80413.570312 39611.257812
56140.812500 80706.375000 39415.839844
56258.078125 80539.140625 39998.457031
56297.539063 80288.359375 40255.277344
15882.417969 70464.640625 45353.097656
56286.632812 80329.335938 43309.871094
56279.949219 80198.257812 43024.589844
55833.101562 79952.359375 43051.148438
56362.015625 80280.828125 31285.003906
56483.933594 80393.226562 31591.384766
56575.128906 80420.312500 31975.632812
56567.796875 80198.234375 32178.318359
56356.535156 80425.375000 32982.644531
56498.398438 80360.640625 32650.111328
56346.746094 80617.968750 40335.253906
56458.539062 80724.140625 40672.492188
56463.070312 80382.937500 40895.730469
56538.042969 80335.046875 41245.675781
56599.832031 80722.796875 41072.843750
56580.394531 80266.218750 41593.742188
56690.929688 80588.960938 41444.597656
56584.531250 80209.507812 41892.816406
56674.125000 80321.359375 42156.125000
56105.941406 79996.242188 42827.980469
51156.738281 80942.164062 46008.484375
51283.378906 80652.765625 45796.773438
50941.343750 80670.960938 45957.261719
51616.539062 80628.585938 45630.191406
51866.660156 80925.679688 45691.550781
51503.937500 80937.937500 45857.769531
52234.179688 80892.968750 45512.757812
52335.570312 80583.664062 45279.117188
51968.738281 80597.593750 45450.703125
52599.429688 80849.992188 45337.976562
53006.210938 80816.578125 45168.589844
53425.785156 80963.679688 45132.007812
53295.578125 80678.148438 44982.296875
53600.312500 80699.796875 44905.687500
53801.230469 80941.101562 45021.515625
54152.632812 80939.671875 44939.707031
53946.664062 80695.625000 44806.492188
54520.562500 80951.523438 44872.667969
54322.519531 80693.039062 44704.343750
54724.605469 80728.296875 44636.753906
55160.308594 80547.796875 44317.207031
54896.734375 80564.750000 44425.859375
55745.675781 80879.796875 33977.656250
55870.031250 80681.875000 33782.800781
55599.558594 80758.187500 34223.183594
55499.660156 80954.195312 34465.812500
55425.136719 80788.679688 34741.648438
55402.214844 80818.656250 35290.472656
55393.132813 80963.398438 35012.003906
55500.816406 80946.109375 35857.210938
55564.566406 81196.585938 36127.679688
55599.781250 80797.210938 36225.687500
55706.351562 80805.218750 36635.492188
55753.792969 81170.039062 36864.812500
55826.589844 81089.210938 37219.257812
55949.246094 80459.734375 43832.597656
56181.980469 80416.390625 43595.207031
55642.054688 80471.929688 44009.738281
55519.601562 80653.312500 44320.304688
55829.929688 80596.609375 44121.398438
55914.421875 80761.976562 44337.023438
56023.511719 80750.859375 30476.484375
55921.843750 80997.000000 30177.667969
56132.296875 80773.351562 30751.199219
56248.773437 80761.843750 30992.082031
56374.277344 80910.132812 33030.417969
56193.222656 80650.554688 33308.949219
56188.453125 80977.523438 33353.218750
56034.000000 80825.179688 33565.015625
55910.828125 80608.492188 37736.378906
55946.054688 80724.765625 38032.843750
55981.339844 80526.187500 38303.410156
55978.222656 80903.085938 38350.277344
56014.207031 80649.164062 38575.347656
56028.226562 80928.593750 38759.078125
56087.714844 80796.992188 39120.957031
56120.667969 81007.710938 39382.371094
56197.636719 80850.484375 39730.527344
56293.253906 80880.757812 40116.765625
56297.199219 80551.976562 43797.445312
56411.355469 80476.468750 43533.906250
56119.097656 80648.445312 44081.457031
56255.656250 80830.796875 44325.484375
56464.796875 80721.468750 44045.785156
56378.109375 80573.687500 31276.970703
56404.066406 80900.273438 31298.199219
56527.269531 81005.507812 31604.123047
56566.792969 80714.101562 31788.410156
56610.730469 81058.289062 31993.980469
56609.648438 80706.773438 32089.382813
56578.941406 80480.968750 32342.099609
56540.371094 81070.898438 32675.929688
56512.468750 80684.789062 32677.181641
29812.363281 49674.347656 54307.746094
29665.783203 49963.304688 54306.976562
56380.136719 80902.093750 40401.066406
56456.191406 81086.890625 40597.214844
56553.769531 80987.843750 40847.398438
56670.460938 81117.335938 41078.246094
56924.546875 81094.281250 41594.648438
56766.929688 80933.578125 41350.648438
56835.222656 80796.445312 41616.425781
56758.523438 80513.796875 41821.601562
56977.070312 80880.312500 41900.464844
56712.671875 80443.851562 42902.230469
56756.128906 80427.796875 42509.699219
56478.019531 80329.359375 43053.617188
56630.890625 80488.367188 43281.085938
56666.210938 80627.656250 43679.640625
29509.939453 50281.316406 54306.367187
56822.195312 81294.250000 41328.003906
56885.214844 80601.359375 42178.523438
56978.273438 80628.132812 42735.707031
56987.582031 80663.429688 42445.816406
57252.968750 80819.812500 42913.429688
57183.496094 80843.585938 42556.835938
56946.769531 80621.070312 43084.601562
57183.027344 80754.437500 43277.132812
56907.882812 80642.562500 43397.394531
11483.675781 70580.546875 38003.929688
17181.933594 70168.343750 47184.890625
9405.681641 70303.945312 34368.054688
50987.863281 81209.773438 46222.015625
50852.187500 80941.093750 46131.234375
51357.929687 81233.882812 46089.750000
51732.820312 81243.148438 45938.292969
52146.867188 81251.671875 45766.453125
52500.128906 81149.039062 45558.316406
52734.152344 81385.132812 45605.687500
53063.855469 81372.335938 45478.859375
52841.769531 81114.359375 45407.691406
53153.707031 81119.187500 45305.527344
53689.476562 81170.796875 45188.738281
53432.265625 81333.406250 45342.718750
53796.539063 81420.218750 45296.339844
54162.753906 81496.187500 45258.066406
53989.734375 81192.726562 45133.652344
54336.203125 81192.007812 45068.152344
54650.925781 81179.507812 45009.917969
54914.359375 81353.906250 45076.761719
54938.761719 81019.609375 44842.242188
55391.843750 81096.171875 35251.007812
55428.062500 81042.437500 35526.351562
55397.761719 81340.882812 35386.128906
55154.859375 80759.250000 44557.367188
55390.214844 81013.000000 44753.847656
55202.968750 81208.023438 44946.292969
55466.878906 81252.765625 44940.593750
55800.222656 81208.023438 33907.683594
55623.582031 81107.546875 34191.710938
55501.359375 81320.703125 34455.128906
55424.550781 81133.250000 34734.546875
55383.476563 81324.460938 35032.386719
55792.898438 81174.390625 44819.601562
55691.179688 80895.812500 44566.460938
55901.027344 81317.742188 30198.251953
56004.402344 81164.171875 30465.455078
56144.394531 81036.179688 30770.992188
56100.886719 81379.640625 30694.619141
56218.566406 81305.757812 30915.904297
56301.503906 81111.796875 31076.644531
55894.894531 80957.437500 33765.613281
55903.507813 81384.750000 37853.199219
55867.046875 81236.289062 37499.054688
55902.304688 81084.523438 37729.765625
55855.242188 81568.828125 37508.082031
55934.691406 81042.023438 38002.437500
55949.140625 81279.070312 38241.960938
55986.390625 81177.179688 38532.105469
56009.078125 81299.156250 38793.187500
56060.187500 81130.414062 39070.652344
56083.207031 81336.335938 39316.937500
56152.996094 81228.984375 39625.765625
56235.753906 81172.281250 39944.980469
56181.433594 81462.625000 39830.378906
56047.390625 80971.687500 44567.898438
56224.843750 81192.796875 44767.410156
56332.761719 81426.804688 31126.863281
56441.964844 81240.289062 31362.212891
56602.187500 80874.632812 32356.927734
56451.382812 81261.000000 32929.457031
56338.800781 81202.906250 40283.996094
56256.585937 81411.250000 40076.835938
56434.578125 81417.984375 40555.785156
56558.828125 81286.179688 40823.320312
56683.976563 81473.875000 41062.800781
56846.039062 80811.859375 44023.632812
56599.496094 80915.671875 44335.468750
56364.472656 81010.304688 44542.980469
56666.851563 81185.320312 44674.750000
57012.378906 81473.054688 41595.437500
56835.906250 81666.476562 41308.312500
57074.007812 81204.351562 41807.074219
57188.367188 81138.125000 42063.761719
57097.425781 80860.992188 42248.863281
57106.507812 80770.984375 43660.023438
56976.937500 81005.125000 44352.332031
57246.113281 80914.234375 44032.460938
57517.222656 81270.343750 42437.957031
57310.750000 81084.148438 42354.894531
57436.976562 81049.359375 42644.214844
57577.933594 81023.070312 42940.742188
57739.179687 81294.695312 42674.875000
57430.851563 80877.023438 43163.121094
57431.406250 80858.234375 43446.250000
57676.988281 80983.875000 43249.117188
57403.886719 81113.750000 44389.523438
57671.171875 81010.070312 43985.054688
29138.099609 50294.976562 54305.886719
57074.523438 81188.171875 44606.375000
57882.375000 81171.281250 43023.175781
57709.695312 80965.242188 43584.582031
57440.085938 80885.156250 43744.957031
58008.265625 81079.414062 43723.183594
57970.714844 81096.953125 43356.929688
57826.675781 81165.718750 44327.488281
58007.781250 81113.507812 44050.695312
29958.074219 49370.660156 54308.804688
29671.390625 49424.324219 54307.992188
50796.210938 81489.953125 46440.574219
51022.191406 81846.398438 46555.820312
51191.175781 81523.742188 46321.109375
51413.304688 81826.257812 46411.960938
51953.167969 81559.914062 46034.500000
51573.789062 81545.609375 46184.574219
52298.230469 81583.875000 45901.332031
52457.031250 81813.625000 45968.933594
52608.886719 81629.101562 45796.757812
52770.968750 81943.656250 45907.531250
52937.636719 81646.351562 45675.019531
29714.400391 49085.085938 54308.972656
53282.546875 81634.343750 45543.738281
53160.609375 81912.914062 45729.351562
53484.171875 81888.468750 45598.902344
53783.855469 81886.835938 45508.917969
53612.132812 81642.476562 45446.781250
53895.398438 81667.406250 45388.382812
54543.082031 81417.601562 45162.550781
54458.164062 81708.257812 45307.359375
54129.324219 81868.007812 45423.328125
54739.519531 81602.609375 45227.300781
54751.964844 81894.765625 45344.945312
55369.964844 81581.562500 35214.906250
55373.863281 81711.531250 34908.625000
55414.082031 81772.734375 45239.640625
55281.433594 81443.906250 45087.945312
55032.785156 81661.953125 45223.785156
55815.968750 81784.046875 30017.542969
55716.457031 81855.937500 34009.550781
55645.796875 81520.929688 34147.832031
55588.410156 81808.500000 34218.699219
55470.488281 81753.859375 34500.031250
55416.851563 81449.351562 34722.222656
55399.140625 81651.523438 35505.457031
55467.171875 81354.687500 35768.199219
55547.925781 81548.632812 36113.152344
55549.828125 81935.648438 36180.359375
55735.816406 81939.351562 36902.546875
55815.066406 81396.273438 37199.066406
55804.078125 81739.804688 37214.667969
55790.425781 81712.742188 45187.949219
55636.070312 81464.406250 45059.015625
55878.984375 81583.781250 30195.539062
55973.453125 81497.296875 30432.763672
56069.859375 81699.312500 30652.986328
56209.003906 81573.320312 30901.957031
56333.964844 81743.695312 31132.234375
56261.406250 81707.781250 33271.742188
55889.640625 81585.656250 33780.125000
55919.078125 81683.039062 38194.585938
55965.152344 81479.117188 38519.597656
55942.644531 81769.445312 38526.914062
55983.820312 81662.734375 38835.601562
56032.839844 81422.210938 39048.355469
56034.316406 81685.687500 39231.000000
56106.160156 81547.187500 39544.496094
56132.332031 81748.375000 39760.312500
56217.792969 81667.726562 40031.546875
56317.781250 81553.445312 40291.042969
56047.539063 81477.187500 45021.726562
56459.082031 81584.187500 31383.734375
56550.890625 81757.921875 31615.068359
56567.007812 81413.789062 31707.683594
56623.699219 81800.859375 31949.771484
56631.535156 81444.023438 32072.740234
56627.082031 81683.062500 32360.855469
56617.875000 81261.257812 32357.812500
56555.273438 81441.578125 32678.439453
56545.160156 81797.140625 32727.916016
56430.109375 81573.812500 32987.089844
56411.062500 81921.156250 33026.468750
56270.363281 81871.070312 40258.410156
56397.679688 81751.460938 40533.390625
56538.140625 81623.898438 40800.437500
56662.691406 81836.359375 41046.574219
56973.742188 81353.835938 44811.105469
56697.500000 81527.656250 44987.691406
56399.296875 81388.242188 44918.339844
56354.984375 81608.125000 45084.960938
56990.257812 81820.648438 41513.347656
56831.265625 82077.031250 41318.363281
57176.347656 81773.781250 41743.609375
57089.687500 81572.617188 44983.675781
57429.742188 81756.335938 42026.410156
57396.171875 81375.617188 42185.250000
57665.675781 81570.398438 42347.035156
57220.218750 81452.140625 41900.089844
57334.800781 81365.554688 44757.859375
57398.050781 81611.554688 44981.308594
35711.734375 95939.156250 43003.765625
35575.859375 96171.523438 42941.281250
13954.130859 69650.914062 42564.746094
57923.371094 81578.921875 42552.441406
57895.703125 81798.273438 42393.425781
57708.863281 81936.703125 42204.566406
7051.977539 63102.148438 32851.863281
57661.078125 81290.429688 44599.140625
57723.703125 81541.250000 44864.910156
58164.406250 81807.679688 42573.367188
58106.210938 81448.929688 42823.839844
58391.460938 81662.250000 42815.316406
58318.062500 81245.625000 43453.660156
58150.765625 81262.554688 43136.609375
58401.277344 81446.406250 43076.000000
58304.914062 81207.078125 43903.242188
27134.443359 48925.269531 54311.183594
26826.056641 48723.679688 54317.515625
58185.003906 81250.781250 44279.933594
58355.097656 81452.835938 44557.562500
58167.878906 81641.804688 44860.296875
58451.339844 81620.343750 44753.550781
57992.402344 81367.828125 44596.070312
58619.601562 81447.507812 43315.398438
58724.628906 81731.500000 43001.824219
48028.750000 75574.289062 11074.998047
58667.949219 81371.046875 43716.523438
59037.101563 81558.617188 43816.730469
58903.039062 81579.875000 43401.695312
58577.207031 81374.695312 44181.824219
58815.730469 81422.890625 43980.984375
58927.515625 81535.578125 44205.570312
24237.101562 69742.406250 53276.621094
24248.052734 69393.765625 53301.558594
58710.214844 81616.781250 44578.847656
28965.660156 48476.621094 54308.921875
29010.882812 48038.343750 54310.679688
59236.281250 81697.593750 44146.042969
22934.253906 69939.523438 52719.992188
51313.261719 82095.062500 46597.023438
40651.207031 100068.789062 33355.691406
51803.054688 81885.539062 46292.527344
51579.835938 82068.179688 46489.230469
51546.148438 82311.843750 46631.550781
51820.355469 82220.320312 46480.996094
52111.519531 82128.757812 46306.367188
52361.812500 82343.898438 46322.046875
52432.699219 82066.632812 46127.585938
53076.863281 82212.976562 45919.371094
53404.832031 82150.617188 45750.972656
53659.398438 82089.085938 45631.207031
53695.953125 82368.648438 45744.882812
53930.617188 82139.265625 45574.617188
54257.644531 82179.898438 45514.332031
54588.140625 82196.257812 45466.097656
54434.195312 81971.765625 45411.324219
54930.562500 82191.507812 45427.761719
55328.261719 82200.765625 45400.113281
55091.277344 81940.843750 45332.414062
55810.132812 82081.289062 30115.228516
55572.238281 82097.515625 34238.679688
55381.398438 81927.890625 34736.203125
55794.441406 82106.843750 37288.976562
55841.460938 82096.226562 37662.195312
55838.816406 81860.468750 37493.312500
55875.617187 81783.734375 37793.742188
56121.667969 81857.164062 45234.453125
56518.765625 81836.390625 45201.769531
56363.285156 82093.906250 45329.304688
55730.382812 82029.046875 45326.542969
55789.550781 82385.296875 30154.488281
55903.726562 82200.070312 30388.224609
55920.914062 81837.859375 30352.009766
56040.328125 82027.226562 30633.943359
56189.808594 81886.312500 30886.433594
56317.781250 82074.835938 31129.361328
55874.816406 82097.851562 38048.785156
55911.777344 81975.507812 38378.105469
55978.035156 81938.992188 39029.632812
56006.410156 82068.593750 39343.414062
56067.750000 81817.578125 39510.148438
56077.027344 82028.640625 39681.820312
56197.679688 82221.101562 40206.570312
56162.855469 81958.679688 39971.621094
56457.773438 81914.312500 31384.207031
56563.089844 82062.539062 31671.306641
56448.394531 82251.148438 31401.054688
56632.578125 82226.617188 32006.707031
56650.109375 81996.171875 32225.867188
56618.324219 82027.585938 32495.107422
56646.066406 82222.578125 32308.429688
56528.507813 82127.171875 32778.863281
56395.175781 82253.046875 33043.144531
56342.132812 82076.414062 40507.628906
56491.828125 81963.054688 40777.027344
56599.816406 82188.132812 41014.449219
52736.687500 64820.566406 13337.590820
56707.640625 82153.734375 45334.191406
57086.378906 82093.242188 41617.097656
56955.679688 82435.179688 41513.519531
38977.574219 94779.523438 40101.757812
38938.003906 94924.578125 39935.703125
39136.808594 94812.367188 39963.281250
56888.855469 81825.257812 45167.355469
18874.207031 69030.656250 49719.722656
57086.636719 82087.492188 45292.628906
57295.949219 82035.562500 41833.882812
57266.585938 82392.914062 41798.972656
57508.957031 82150.570312 42006.855469
57430.105469 82072.492188 45267.074219
57246.832031 81822.554688 45143.101562
22028.494141 69254.554688 52371.324219
22000.109375 68898.101562 52385.875000
57743.207031 82238.882812 42161.683594
