1224
96346.046875 39374.824219 44979.015625
69224.710938 49870.863281 26101.931641
96266.890625 39358.550781 51665.667969
96267.218750 39658.242188 52000.679688
96402.289062 39810.054688 52206.667969
96539.273438 39637.863281 52056.042969
96403.101562 39498.832031 51856.691406
96898.000000 39834.015625 45247.769531
96697.773438 39863.664062 45041.820312
90025.484375 34483.015625 49376.589844
96985.429688 39579.320312 45455.246094
97079.414062 39381.660156 45640.003906
96917.843750 39842.792969 52462.464844
97179.242188 39754.140625 52449.804688
96993.210938 39681.843750 52260.839844
96943.304688 39230.777344 51520.339844
97076.132812 39376.121094 51769.996094
97221.929688 39245.910156 51533.839844
97668.632812 39723.335938 46061.781250
97484.109375 39377.851562 46037.363281
97311.710938 39451.734375 51932.308594
97301.148438 39595.730469 52211.316406
97547.773438 39490.378906 52033.925781
97524.460938 39375.945312 51781.632813
97794.265625 39531.328125 52125.992188
97755.882812 39412.222656 51838.511719
97886.125000 39721.695312 46277.605469
97977.007812 39303.992188 46582.035156
98023.007812 39079.910156 46780.964844
97966.312500 39207.011719 51233.332031
97939.898438 39336.132812 51580.324219
98177.921875 39430.101562 51685.019531
98035.296875 39540.675781 52095.082031
97989.984375 39456.277344 51882.621094
98203.429688 39514.121094 51930.457031
97943.953125 39619.691406 52311.207031
98077.671875 39722.285156 52486.492188
98227.812500 39616.660156 52188.843750
98302.695312 39481.609375 46844.593750
98546.812500 39916.621094 46926.468750
98456.640625 39645.710938 46951.464844
98747.695312 39423.714844 47625.460938
98821.492188 39678.628906 47507.175781
98909.265625 39929.859375 47474.550781
98619.093750 39552.691406 47266.937500
98637.789062 39184.449219 47695.625000
98926.242188 39313.488281 48405.152344
98721.187500 39401.683594 50475.941406
98773.875000 39370.015625 50222.218750
98547.601562 39251.457031 50407.667969
98522.593750 39379.257812 50893.488281
98748.789062 39477.816406 50695.890625
98584.062500 39350.730469 50642.703125
98755.312500 39535.437500 50967.500000
98980.320312 39648.906250 50775.078125
98550.632812 39451.753906 51145.160156
98790.007812 39620.671875 51458.218750
99377.296875 39900.101562 49221.609375
98970.812500 39310.238281 48946.984375
99200.039062 39682.800781 49823.820312
98969.148438 39357.449219 49424.222656
98949.132812 39475.574219 50052.363281
70064.187500 50542.812500 26125.318359
70201.195312 50330.234375 26120.105469
70349.445312 50493.878906 26124.029297
70604.687500 108903.304688 31270.146484
88533.851562 39814.238281 48903.773438
88396.812500 40012.230469 48853.910156
88644.726562 40031.339844 48982.871094
88501.226562 40246.656250 48939.933594
88229.914062 40196.605469 48774.250000
88603.039062 40466.242188 49018.718750
90081.109375 82554.984375 26131.478516
70233.578125 50095.441406 26114.857422
70430.351562 50259.042969 26118.480469
70794.179688 50813.191406 26132.039062
70550.078125 50648.992188 26127.789062
70786.867188 50502.433594 26123.792969
88868.546875 40018.078125 49062.613281
89075.117188 40134.960938 49117.882812
89579.906250 39708.003906 49131.511719
89359.796875 39963.460938 49134.160156
90368.289062 40027.828125 39536.945312
70554.929688 50431.175781 26122.244141
70670.304688 50242.734375 26117.580078
90884.734375 40310.957031 39953.250000
90891.554688 40033.132812 40102.011719
90589.343750 40569.699219 49447.785156
90237.984375 39907.480469 49250.960938
91125.625000 40241.269531 49629.132812
90835.617188 40404.980469 49530.210938
91059.343750 40562.332031 49662.394531
91110.484375 39908.480469 49556.210938
91343.203125 40033.261719 49677.785156
91881.742188 40022.539062 40843.070312
91569.156250 39890.578125 49734.507812
92257.867188 40079.519531 50103.687500
92087.921875 40331.648438 50115.660156
92699.046875 40365.925781 41334.644531
92269.218750 40070.371094 41131.417969
92330.367188 40315.375000 50271.386719
93266.890625 40101.539062 41887.269531
93482.539062 40160.738281 42022.257812
92951.140625 40236.289062 50854.417969
93161.218750 40237.421875 51082.394531
93151.585938 40050.011719 50866.238281
92966.906250 40056.882812 50669.527344
93667.960938 40106.464844 42202.210938
93906.085938 40183.250000 42359.101562
93839.718750 40371.710938 42205.164062
93375.515625 40165.238281 51207.390625
93300.375000 39891.710938 50834.964844
93827.007812 40382.800781 51678.687500
93666.718750 40293.562500 51514.808594
93556.515625 40044.761719 51219.136719
93774.000000 39932.355469 51242.167969
94013.703125 40398.390625 42337.882812
94061.062500 40277.476562 51695.023438
94644.429688 39961.492188 43130.316406
94482.671875 40142.523438 42886.222656
94401.085938 39825.738281 43003.156250
87296.570312 45520.058594 49149.921875
94789.898438 40102.074219 51873.625000
94230.539062 40566.601562 52056.117188
94451.742188 40631.253906 52221.160156
94570.757812 40082.226562 51753.949219
95326.031250 39926.722656 51948.046875
95254.296875 40142.437500 52115.414062
95051.968750 40048.335938 51944.253906
96047.914062 40232.769531 44240.804688
96098.906250 40417.183594 44197.066406
96376.140625 40421.652344 44457.726562
96560.507812 40593.917969 44561.375000
96230.007812 39881.781250 44595.039062
96119.718750 40074.011719 44390.105469
96321.773438 40155.894531 44536.132812
71181.468750 50242.554688 26117.351562
71266.812500 50534.210938 26124.681641
93345.726562 69105.835938 26127.982422
96129.867188 40202.773438 52494.621094
96130.695312 40408.269531 52678.777344
96309.625000 40287.671875 52644.351562
96697.992188 39777.417969 52279.765625
97010.289062 40083.234375 45241.269531
97091.546875 39899.675781 45406.312500
97020.242188 40336.453125 45139.699219
96518.476562 39608.234375 45005.781250
80590.218750 117172.312500 47563.105469
96732.265625 40168.992188 52742.753906
96834.078125 40002.250000 52617.699219
96941.343750 40095.886719 52777.632812
97104.296875 39931.984375 52666.269531
96714.515625 39926.503906 52468.429688
97642.921875 40084.316406 45878.460938
97374.468750 39923.808594 52772.015625
97863.195312 39849.457031 52736.933594
98027.710938 40274.910156 46189.195312
97858.492188 40035.164062 46114.320312
98036.656250 40016.230469 46299.734375
97863.265625 40194.437500 53156.042969
98023.578125 40019.382812 52965.761719
98690.476562 39989.777344 47092.570312
98910.968750 40359.425781 47253.386719
98836.992188 40081.425781 47269.253906
98770.609375 40209.468750 47111.050781
98377.765625 39739.734375 52407.121094
98667.312500 39795.488281 52364.804688
98508.484375 39838.667969 52573.667969
98820.570312 40043.007812 52811.648438
98741.796875 39905.445312 52587.394531
99280.664062 39792.027344 48690.207031
99456.492188 40044.550781 49004.093750
99444.914062 39989.167969 49439.980469
99331.390625 39844.925781 49989.175781
94194.351562 69019.546875 26122.464844
99023.468750 39756.000000 51578.058594
99216.882812 39859.890625 51463.242188
98794.085938 39657.789062 51694.769531
99189.421875 39910.742188 52001.390625
99289.914062 39928.691406 51726.835938
99003.773438 39783.925781 51835.292969
99485.437500 40086.980469 52021.343750
73016.421875 55636.429688 26183.937500
98910.539062 39885.914062 52391.320312
99018.382812 39999.246094 52580.347656
99542.406250 40081.785156 50119.632812
99525.085938 40078.851562 51281.058594
99609.734375 40163.082031 50715.089844
88561.054688 40741.378906 49032.191406
88799.851562 40834.070312 49129.210938
88794.656250 40272.023438 49065.816406
89883.828125 40656.191406 38785.335938
72757.929688 55471.953125 26184.292969
72788.398438 55185.605469 26182.044922
90011.851562 40938.480469 49291.085938
90219.492188 40890.070312 49343.269531
90876.226562 40891.894531 39651.785156
91216.601562 40721.710938 49773.531250
91989.429688 40720.367188 40655.960938
91801.578125 40353.175781 49967.363281
91947.992188 40605.675781 50144.390625
91844.828125 40892.042969 50205.289062
92045.390625 40752.585938 50287.976562
70305.765625 55657.750000 26196.783203
92228.234375 40557.660156 40897.421875
92169.945312 40552.078125 50278.941406
92374.195312 40513.238281 50444.671875
92722.687500 40605.546875 50968.519531
92695.046875 40853.328125 51154.671875
92878.195312 40615.683594 51156.566406
92920.679688 40424.742188 51022.597656
92393.468750 40704.031250 50635.101562
92646.007812 40738.050781 41143.582031
93098.320312 40609.605469 41526.382812
92989.070312 40765.300781 51392.085938
93233.375000 40808.878906 51655.906250
93514.109375 40840.136719 41741.683594
93478.265625 40853.847656 51901.601562
94193.320312 40558.789062 42415.406250
93963.890625 40716.882812 52080.773438
93807.226562 40931.203125 52218.683594
94022.078125 40890.355469 52296.445312
94223.164062 40760.351562 52254.652344
94449.187500 40824.851562 52413.933594
94575.242188 40673.558594 42689.621094
94782.421875 40742.210938 42838.207031
94380.460938 40427.792969 42643.539062
94974.640625 40807.832031 52585.574219
95241.164062 40844.160156 43203.398438
95218.562500 40361.003906 43417.500000
95369.812500 40631.332031 43423.078125
95101.648438 40661.894531 52507.878906
95302.382812 40677.113281 52594.964844
95265.648438 40525.402344 52456.242188
95591.375000 40797.394531 43551.804688
95485.570312 40588.562500 52590.804688
95750.210938 40886.691406 52907.277344
96040.953125 40834.750000 52978.242187
95911.929688 40706.726562 52835.875000
96092.617188 40798.839844 44020.546875
96597.898438 40821.847656 44501.562500
96749.414062 41052.257812 44568.882812
96647.093750 41227.546875 44400.343750
96528.250000 40964.238281 44375.128906
97025.304688 40577.558594 45043.050781
97133.367188 40787.257812 45073.031250
73869.953125 116883.679688 51783.855469
96800.914062 40676.589844 53213.902344
96946.468750 40782.570312 53339.277344
96992.289062 40552.074219 53206.429688
96709.664062 40880.210938 53299.453125
97333.171875 40769.363281 45291.589844
97252.757812 40976.472656 45133.191406
97500.476562 40568.464844 45539.285156
98006.710938 43235.554688 54117.492188
98346.914062 43294.128906 54140.902344
98203.656250 43058.128906 54129.933594
97507.718750 40708.199219 53470.562500
97222.882812 40664.355469 53361.335937
93305.203125 85402.171875 26115.732422
98002.593750 40779.085938 53611.433594
98214.484375 40886.105469 46227.042969
98082.562500 41010.214844 46048.515625
98397.945312 40721.097656 46483.449219
98780.984375 40986.050781 46889.140625
98878.523438 40793.054688 47056.500000
98956.648438 40618.199219 47215.691406
99119.585938 40579.062500 47458.429688
98152.039062 40202.906250 53181.140625
98685.750000 40703.433594 53615.414062
98770.507812 40516.054688 53443.867187
99232.531250 40920.796875 47450.750000
99217.101562 41148.242188 47341.304688
99140.453125 40299.101562 47641.234375
99399.039062 40447.625000 47977.378906
99108.070312 40137.121094 52802.277344
99216.203125 40303.523438 52995.554688
99356.273438 40231.515625 52767.777344
99652.929688 40676.859375 48243.437500
99511.937500 40445.871094 48198.832031
99784.132812 40655.941406 48623.648438
99688.648438 40353.695312 49252.382812
99964.000000 40671.132812 49494.386719
99945.804688 40601.144531 49798.652344
99997.132812 40759.480469 49266.781250
99840.187500 40402.835938 50739.839844
99748.757812 40307.683594 50532.921875
68075.093750 109083.187500 53145.753906
100119.859375 40616.691406 51885.906250
100090.164062 40589.324219 51635.476562
99961.898438 40445.164062 51768.082031
99831.039062 40581.335938 52789.953125
99980.875000 40596.367188 52572.175781
99773.984375 40340.472656 52354.105469
99980.398438 40523.031250 52367.710938
100073.296875 40775.574219 52708.972656
99448.828125 40729.496094 53363.378906
99706.867188 40786.414062 53211.683594
99881.890625 40759.082031 52979.039062
100114.539062 40798.132812 50038.503906
100026.515625 40620.226562 50729.746094
100169.679688 40806.921875 50706.800781
100276.226562 40817.125000 52007.429687
88264.500000 41877.230469 48999.406250
88947.296875 41664.515625 49181.476562
88649.304688 41036.769531 49098.421875
72696.640625 49260.503906 26086.972656
86169.679688 80901.132812 26131.835938
89438.679688 41405.710938 49233.972656
89207.968750 41240.992188 49204.812500
89184.609375 41522.613281 49208.777344
90277.187500 41232.976562 38949.007812
90160.789062 41411.738281 49414.847656
90373.218750 41572.125000 49543.906250
90836.320312 41214.601562 39492.523438
90602.531250 41143.781250 49555.441406
91004.296875 41452.699219 39575.664062
91183.531250 41508.917969 49969.183594
91034.617188 41339.429688 49827.757812
91540.414062 41281.019531 40094.582031
91606.429688 41096.917969 40217.996094
92188.140625 41496.355469 40543.531250
91618.203125 40927.308594 50059.164062
92144.828125 41422.113281 50971.164062
91980.296875 41425.015625 50737.789062
92024.929688 41614.789062 50973.140625
82580.656250 115974.546875 45254.089844
92297.710938 40958.421875 50748.695312
92430.015625 41041.273438 51000.785156
92518.968750 40785.066406 50879.816406
92326.867188 41308.433594 51109.171875
92202.843750 41212.015625 50856.996094
92205.960938 41555.988281 51172.742188
92971.039062 41198.281250 41213.914062
92572.023438 41091.261719 40963.070312
92436.546875 41471.113281 51382.484375
93742.796875 40839.324219 41919.753906
93682.554688 41097.738281 41772.785156
93447.671875 41109.921875 41589.738281
93401.976562 41139.316406 52125.660156
93604.984375 40967.652344 52119.507812
93665.835938 41530.339844 52721.718750
93896.421875 41340.964844 52677.226563
93914.945312 41100.914062 41954.601562
94153.460938 41185.753906 52647.218750
94105.906250 41377.070312 52800.949219
94200.601562 40963.859375 52453.019531
94193.828125 41528.195312 52942.941406
93908.039062 41104.558594 52452.750000
94438.070312 41456.003906 42242.511719
94308.554688 41597.257812 42082.882812
94402.921875 41215.949219 42307.585938
94836.476562 41426.214844 42587.589844
94637.101562 41216.390625 42503.082031
94432.554688 41046.281250 52618.785156
94672.867188 41145.445312 52776.667969
94742.796875 41512.546875 53058.171875
94872.773438 41290.402344 52935.800781
95059.234375 41661.972656 42683.835938
94952.531250 41892.585938 42496.035156
95325.695312 41321.589844 43068.070312
95054.414062 41326.902344 42819.757812
95151.078125 41067.667969 43019.375000
95569.234375 41454.617188 43240.187500
95162.156250 41239.660156 52968.988281
94986.562500 41025.207031 52765.710938
95352.679688 41441.937500 53145.296875
96109.484375 41496.937500 43755.714844
95954.539062 41326.242188 43666.765625
95656.914062 41254.457031 43408.949219
95793.398438 41175.929688 43573.597656
95779.695312 41410.445312 43461.734375
95664.648438 41126.925781 53040.027344
96189.929688 41001.347656 53148.507812
96140.593750 41238.789062 43884.515625
96356.304688 41295.902344 44078.320312
96281.078125 41483.765625 43936.472656
97143.742188 41305.402344 44915.371094
96550.804688 41385.082031 44247.968750
96590.593750 41131.066406 53385.863281
96457.515625 40939.101562 53223.031250
96723.921875 41338.339844 53531.691406
96461.539062 41380.910156 53457.320312
96197.515625 41423.980469 53385.464844
96838.984375 41533.187500 53647.757812
96983.281250 41334.113281 53616.335938
97081.734375 41605.597656 53746.269531
96882.335938 41064.871094 53463.523438
97288.937500 41190.347656 45111.503906
97418.343750 41050.308594 45294.496094
97601.984375 41128.660156 45480.289062
97571.742188 41538.375000 53858.019531
97582.343750 40933.300781 53608.046875
97662.921875 41163.539062 53733.730469
97919.398438 41053.359375 45854.039062
97925.429688 41322.808594 45823.996094
97945.312500 41584.097656 45818.476562
97997.398438 41782.875000 54021.066406
97837.843750 40967.269531 53681.042969
98088.156250 40991.121094 53744.179688
98199.921875 41201.183594 53868.695312
98544.070312 41163.906250 46579.042969
98382.265625 41051.894531 46402.324219
98576.304688 40954.578125 46652.535156
98341.156250 41500.660156 46290.546875
98307.468750 41261.394531 46282.250000
98804.156250 41385.058594 46840.316406
98350.953125 41405.011719 53983.312500
98334.812500 40978.929688 53780.453125
98592.984375 40934.269531 53778.417969
98925.703125 41589.410156 46928.117188
98857.742188 41208.738281 46931.648438
99329.429688 41603.851562 47299.273438
99374.257812 41387.054688 47415.687500
99380.796875 41128.468750 47531.808594
99703.109375 41607.746094 47639.898438
99048.734375 41091.218750 53832.578125
98904.335938 41280.437500 53967.265625
98881.531250 41502.976562 54055.308594
100139.679688 41666.941406 48217.476562
100059.539062 41430.664062 48278.296875
100130.882812 41373.363281 53355.667969
99943.812500 41388.363281 53557.988281
100103.460938 41588.589844 53565.597656
99673.539062 41281.804688 53677.191406
99838.804688 41554.382812 53753.378906
100243.015625 41409.261719 48734.433594
100194.960938 41527.941406 48473.695312
100209.789062 41140.121094 49084.578125
100156.867188 41179.179688 48828.882812
100284.539062 41061.718750 49901.246094
100117.398438 40843.605469 49715.226562
100351.585938 41103.710938 50399.816406
100465.492188 41278.035156 50478.257812
100316.992188 40968.019531 51073.718750
100207.335938 40784.281250 51271.914062
100399.859375 40990.421875 51875.898437
100514.664062 41167.105469 51759.132812
100621.445312 41351.121094 51611.027344
100553.437500 41254.242188 52319.878906
100688.750000 41497.035156 52454.480469
100416.875000 41084.734375 52435.750000
100375.664062 41135.066406 52680.507812
100266.695312 40920.839844 52546.882812
100228.578125 40980.156250 52750.304688
100458.265625 41365.820312 52859.882812
70058.843750 55483.914062 26197.304688
100322.843750 41599.875000 53337.546875
100313.968750 41370.789062 53114.515625
89302.570312 42116.890625 37726.023438
89294.656250 41825.875000 37896.222656
89402.484375 41658.539062 49243.191406
89370.335938 42150.640625 49296.605469
89643.953125 42009.566406 49350.023438
90124.867188 41768.261719 38707.128906
90110.265625 41740.132812 49466.718750
90590.718750 41953.882812 49753.699219
90384.289062 42306.632812 49744.050781
90585.062500 41693.449219 49679.898438
90376.375000 41853.832031 49616.503906
91042.507812 41738.578125 49946.304688
91127.617188 41923.949219 50068.457031
91029.132812 41734.398438 39522.746094
91220.421875 41736.304688 50068.925781
73303.867188 49550.074219 26093.039062
91712.585938 41821.640625 40061.964844
91697.171875 41765.300781 50601.750000
91793.453125 41564.562500 50585.636719
91770.187500 41870.570312 50798.261719
91780.812500 42037.101562 50964.730469
91860.765625 41678.058594 50777.535156
92230.546875 41953.265625 51574.898438
92431.898438 41728.750000 51607.398438
92612.406250 41731.503906 51830.839844
91800.429688 42227.675781 51188.535156
92871.789062 41791.238281 40954.750000
92605.828125 41803.531250 40762.718750
93010.468750 41037.527344 51643.339844
92777.742188 41737.238281 52054.218750
93013.257812 41520.699219 52110.867188
93316.781250 41621.617188 41317.910156
93472.382812 41704.226562 52759.261719
93405.015625 41931.250000 52913.898437
93645.992188 41973.074219 53059.425781
94193.976562 42578.105469 41596.292969
93982.804688 41993.445312 41674.269531
94053.976562 41606.707031 41876.031250
94215.507812 42136.410156 41794.843750
73378.890625 49798.906250 26100.927734
93853.445312 41908.105469 53088.300781
94129.421875 41955.257812 53184.949219
94295.960938 41718.683594 53091.632812
94873.781250 41728.937500 53209.082031
95167.429688 41956.648438 42656.019531
95226.828125 42184.253906 42615.191406
95548.421875 41745.207031 43099.242188
95406.367188 41575.867188 43033.246094
95432.460938 41617.570312 53264.558594
95002.718750 41977.808594 53360.421875
95748.093750 41674.894531 43324.953125
95925.234375 41866.035156 43434.597656
95717.164062 41993.339844 43170.699219
95938.109375 41582.574219 43550.964844
95874.484375 42071.414062 53578.566406
95989.000000 41853.777344 53516.265625
72959.882812 50187.070312 26114.437500
68368.609375 49687.601562 26087.628906
68374.703125 49484.335938 26081.156250
96551.140625 41829.339844 44125.281250
96373.992188 41733.218750 43957.281250
96227.375000 41659.257812 43821.945312
82901.875000 115366.875000 45318.089844
96184.062500 42043.246094 53641.500000
96949.968750 41855.464844 44571.847656
97312.429688 41698.175781 45037.750000
68608.289062 49483.171875 26083.572266
97385.179688 42180.851562 53974.078125
97810.617188 41684.128906 45649.281250
98095.031250 41760.773438 45970.707031
98217.953125 41641.652344 46127.593750
98379.742188 41809.652344 46289.925781
98450.382812 41321.863281 46444.667969
98411.992188 42122.816406 46269.156250
98089.343750 42065.214844 54084.492187
98354.445312 42074.976562 54133.738281
98291.273438 41846.507812 54093.121094
98541.421875 41631.390625 54080.617188
98235.265625 41622.281250 54033.449219
98870.320312 41771.207031 46835.453125
99048.304688 41789.457031 46998.730469
99124.882812 41597.855469 47116.089844
99070.734375 42201.773438 46898.253906
99265.023438 41796.140625 47185.601562
99451.296875 41778.808594 47346.964844
99384.804688 42076.277344 54154.992188
99427.171875 41814.664062 54074.929688
99165.492188 41644.582031 54071.054688
68537.781250 49265.207031 26074.371094
68677.640625 48948.035156 26060.601562
99434.304688 41974.421875 47268.007812
99651.875000 41863.457031 47485.671875
99859.062500 41574.691406 47834.042969
100459.453125 41701.132812 48952.933594
100507.429688 41606.496094 53081.937500
100509.359375 41833.894531 53317.398438
100692.265625 41864.234375 53068.386719
69397.070312 55908.003906 26200.697266
100658.242188 41917.164062 49244.121094
100795.492188 42124.234375 49307.066406
100602.343750 41614.515625 49793.484375
100713.718750 41795.355469 49899.371094
100799.148438 41979.320312 49741.183594
100555.937500 41441.031250 50412.656250
100745.421875 41811.398438 50175.722656
100868.296875 42012.332031 50324.937500
100799.179688 41781.691406 51042.894531
100678.453125 41591.277344 50883.316406
100698.101562 41566.207031 51173.074219
100821.234375 41756.898438 51311.257812
100855.265625 41753.304688 51579.378906
100725.531250 41551.054688 51455.722656
100896.867188 41781.242188 51863.011719
101082.703125 42164.179688 51790.832031
101008.828125 41982.660156 51930.722656
100837.992188 41756.183594 52517.132812
101101.351562 42167.625000 52116.218750
88583.710938 42389.160156 36722.441406
88692.812500 42572.656250 49172.027344
88589.734375 42302.148438 49127.207031
88250.351562 42078.804688 49008.445312
88479.351562 42020.191406 49083.007812
88115.789062 42223.558594 48964.667969
88850.195312 42363.964844 49195.351562
89726.929688 42324.894531 38079.074219
89531.929688 42624.414062 49435.480469
89491.039062 42896.617188 49476.105469
89701.523438 42743.570312 49532.750000
89459.781250 42408.261719 49366.628906
89943.468750 42261.746094 38362.355469
90064.195312 42663.167969 49683.492188
89870.257812 42622.800781 49577.730469
90133.937500 42585.746094 38433.164062
90294.820312 42854.285156 38490.996094
91059.359375 42397.691406 39389.062500
91262.843750 42274.960938 39583.472656
90926.265625 42182.191406 39334.453125
91258.859375 42283.863281 50365.121094
91419.187500 42280.062500 50568.871094
92082.343750 41708.082031 40394.847656
91951.640625 41917.453125 40228.316406
91739.804688 42325.449219 39947.433594
91809.328125 42076.449219 40069.140625
91772.625000 42435.015625 51387.035156
91989.421875 42191.429688 51485.820313
92508.812500 42100.230469 52186.316406
92569.945312 41931.542969 52012.511719
92036.609375 42468.523438 52044.492188
91969.773438 42626.640625 52289.464844
92287.390625 42276.527344 52139.902344
68936.312500 55625.207031 26198.779297
69068.031250 55415.753906 26199.070312
92771.335938 42722.906250 40606.082031
93126.585938 42521.832031 53235.421875
78486.132812 60820.972656 58574.707031
78193.234375 60893.843750 58519.246094
78258.773438 60839.953125 58793.011719
93320.445312 42333.691406 53180.945312
94724.984375 42651.906250 53595.820312
94829.218750 42206.421875 53436.140625
95398.101562 42375.914062 42701.578125
95320.242188 42610.738281 42535.359375
95146.992188 42394.539062 42457.859375
94923.781250 42457.500000 53556.386719
94994.210938 42729.828125 53666.906250
95208.382812 42510.363281 53623.890625
95293.085938 42798.574219 53737.050781
95114.546875 42239.558594 53499.542969
95408.718750 42277.613281 53567.726562
96004.062500 42308.453125 53695.261719
96062.242188 42420.917969 43393.507812
96122.343750 42758.503906 43347.546875
96304.234375 42133.761719 43764.804688
96420.835938 42319.621094 43848.660156
96441.507812 42121.308594 53733.796875
96995.835938 42405.046875 44531.980469
96967.882812 42617.683594 44455.867188
96822.015625 42478.679688 44300.488281
96733.992188 42586.800781 53923.933594
97343.460938 42430.757812 54007.355469
97579.734375 42320.410156 54029.191406
97331.335938 42668.375000 54037.714844
97792.476562 42467.015625 54071.710937
97553.679688 42586.808594 54055.222656
97770.031250 42754.726562 54088.468750
97930.296875 42386.816406 45686.972656
98120.578125 42379.843750 45898.785156
98033.968750 42628.972656 45751.277344
97838.593750 42183.132812 45618.269531
97745.953125 42382.148438 45472.464844
98007.617188 42634.906250 54104.757812
97811.921875 42165.593750 54046.683594
97900.234375 41974.226562 54038.941406
98747.718750 42361.703125 46556.652344
98846.335938 42610.214844 46554.386719
98866.125000 42320.976562 54208.089844
98952.273438 42406.304688 46726.773438
99108.500000 42203.507812 54203.207031
99067.859375 42503.984375 54215.312500
99433.835938 42504.718750 47078.359375
99810.242188 42429.929688 47394.582031
99663.289062 42163.003906 47382.882812
99919.539062 42242.968750 47567.000000
100404.804688 42552.105469 47955.261719
100558.648438 42667.449219 48075.609375
100454.781250 42754.089844 47854.320312
100121.140625 42300.910156 47748.722656
100178.226562 42101.031250 47949.765625
100261.937500 42576.851562 47749.753906
100041.804688 42499.613281 47562.210938
93885.585938 79213.210938 26128.941406
100618.742188 42248.449219 48663.882812
100139.429688 42238.328125 53884.816406
100776.632812 42455.406250 48716.460938
100629.421875 42429.261719 48461.316406
100949.960938 42334.523438 49369.570312
101272.960938 42741.953125 49494.226562
101111.585938 42540.742188 49425.710938
101181.804688 42585.058594 49635.992188
101160.445312 42515.773438 49920.726562
101051.359375 42337.675781 50052.804688
101107.710938 42407.207031 50571.816406
101231.781250 42612.257812 50517.207031
101027.179688 42255.140625 50794.621094
101123.273438 42421.808594 51045.085938
101215.453125 42573.195312 51442.171875
101194.421875 42557.289062 51221.804688
101149.476562 42370.093750 51612.984375
101187.414062 42389.941406 51899.253906
101262.093750 42624.746094 51720.648437
101363.023438 42891.492188 51682.292969
100993.375000 42417.277344 53074.933594
88067.062500 42835.191406 49010.714844
88244.382812 42704.972656 49055.304688
88845.835938 42851.140625 49236.871094
89079.546875 42736.156250 49295.050781
88911.515625 42593.187500 49230.625000
89251.632812 42923.277344 49380.972656
89061.359375 42976.039062 49317.464844
89178.085938 43180.324219 49389.808594
66638.734375 55777.699219 26179.287109
66914.476562 55914.492188 26186.996094
89550.617188 43211.925781 49570.683594
89598.750000 43485.304688 49661.878906
90105.515625 42922.980469 49788.027344
89897.062500 42846.507812 49651.996094
89925.976562 42595.730469 38168.269531
90916.164062 42913.382812 50425.339844
90728.148438 42590.734375 50065.039062
90513.101562 42787.289062 49998.316406
90919.093750 42674.523438 39191.082031
91400.140625 42679.019531 50888.542969
91263.140625 42692.707031 50679.222656
91641.585938 42946.882812 52083.406250
91808.335938 42715.496094 52048.937500
91781.562500 42831.761719 52293.046875
91788.343750 42917.742188 52493.421875
91932.570312 42754.664062 52501.570312
91905.632812 42630.984375 39993.437500
92573.023438 42461.367188 52862.191406
92130.593750 42584.082031 52529.632812
92082.476562 42728.894531 52696.433594
92843.695312 43078.210938 53458.132812
92682.843750 42866.011719 53297.335938
93226.195312 42763.980469 53407.058594
96169.250000 69797.625000 26116.248047
93595.867188 43174.644531 53623.933594
93661.937500 42950.632812 53554.187500
94059.984375 42781.792969 41424.027344
94087.117188 42307.019531 41627.761719
93879.054688 43178.812500 53648.437500
94445.195312 43078.566406 53687.214844
94143.398438 43046.093750 53637.636719
94182.843750 43299.187500 53713.039062
94766.156250 42455.871094 42098.210938
94976.351562 42503.949219 42258.679688
94728.773438 42701.054688 41962.492188
94459.890625 43407.945312 53776.265625
94777.945312 43263.847656 53788.203125
94531.898438 42806.863281 53617.468750
94755.906250 42927.386719 53691.371094
95137.437500 42713.261719 42323.046875
95438.242188 43356.593750 53906.976562
95598.937500 43166.789062 53884.808594
95850.265625 43129.921875 53904.425781
95631.187500 42878.054688 53811.550781
95976.281250 42844.550781 53853.328125
96303.187500 42899.417969 43525.750000
96259.789062 42631.925781 43558.347656
96399.148438 42777.371094 43686.832031
96405.156250 42564.347656 43759.285156
102280.179688 99650.593750 57961.453125
96332.992188 43315.000000 53991.691406
96141.226562 43099.664062 53934.175781
96578.242188 43204.019531 54005.730469
97418.359375 42826.601562 44979.015625
97472.726562 43102.964844 44979.660156
97298.070312 42926.941406 44805.171875
97313.164062 43119.679688 54077.613281
97495.968750 42883.070312 54075.328125
97544.898438 43137.203125 54094.523438
97968.539062 42883.515625 45617.398438
98144.859375 42852.015625 45812.300781
98102.851562 43106.105469 45697.937500
97860.343750 42633.660156 45555.445312
97709.789062 42645.546875 45376.468750
98001.765625 42920.308594 54112.589844
98254.101562 42796.042969 54135.035156
98641.648438 43157.453125 46156.390625
98627.351562 42943.187500 46230.097656
98773.664062 42903.332031 54195.394531
99002.460938 42809.929688 54213.058594
99027.101562 43188.800781 46437.917969
98850.593750 43310.773438 46249.089844
98806.382812 43048.843750 46333.335938
98978.203125 42894.539062 46541.320312
99150.390625 43276.093750 54202.558594
99164.328125 43008.816406 54212.960938
98937.101562 43094.621094 54202.492188
99502.445312 42712.406250 47042.960938
99633.320312 43142.246094 46922.203125
99386.421875 43128.835938 46741.843750
99448.437500 42900.679688 46910.593750
99663.078125 42889.714844 47078.464844
100530.437500 43210.753906 47592.421875
100883.460938 42969.851562 48194.628906
100506.570312 42983.937500 47735.523438
100115.765625 42484.285156 53963.535156
100909.648438 42851.867188 48388.996094
101236.406250 43026.882812 48686.527344
101030.226562 42841.789062 48608.921875
101320.867188 43220.687500 48506.503906
101087.828125 43035.347656 48403.968750
66384.695312 55930.410156 26165.126953
101363.398438 42909.863281 49322.273438
101660.679688 43345.160156 49222.164062
101538.437500 43145.984375 49333.949219
101452.406250 42974.039062 49591.328125
101600.453125 43189.082031 49568.507812
101588.726562 43149.945312 49793.035156
101455.140625 42944.617188 49892.023438
101312.523438 42750.832031 49748.753906
101437.851562 42916.226562 50174.191406
101564.187500 43129.613281 50408.222656
101390.421875 42861.976562 50470.949219
101319.968750 42774.703125 50762.156250
101491.937500 43058.878906 50737.843750
101246.898438 42664.753906 51021.296875
101382.312500 42914.738281 51018.347656
101301.070312 42766.960938 51511.187500
101437.929688 43059.570312 51882.207031
101440.085938 43098.960938 52365.464844
88578.679688 43594.328125 49218.570312
88658.460938 43322.921875 49218.515625
101173.492188 67475.976562 57132.023438
88976.773438 43652.503906 49371.269531
88993.062500 43889.675781 49429.464844
89188.351562 43667.867188 49476.664062
89682.523438 43716.351562 49777.425781
89438.015625 43691.671875 49619.679688
89348.414062 43407.402344 49508.429688
89081.031250 43437.140625 49385.183594
90178.906250 43643.578125 37840.804688
90087.242188 43403.191406 37880.996094
90264.742188 43455.980469 38086.015625
90293.359375 43881.425781 37817.636719
90389.859375 43742.753906 38051.343750
90170.195312 43519.492188 50065.980469
90295.320312 43706.156250 50271.148438
90766.750000 43705.464844 38541.906250
90499.687500 43560.539062 38320.285156
90627.320312 43871.636719 38256.710938
90346.703125 43187.406250 38362.234375
90651.601562 43653.414062 50676.117188
90777.203125 43405.125000 50643.835938
90589.046875 43464.656250 50448.289062
91306.101562 43474.761719 39218.839844
91101.328125 43537.171875 51333.035156
91210.375000 43524.597656 51592.019531
91270.765625 43298.082031 51406.289062
91274.585938 43539.527344 51840.636719
90971.859375 43985.542969 51721.171875
91143.820312 43718.703125 51725.218750
91485.828125 43445.539062 39385.984375
91498.156250 43738.734375 39255.738281
91834.359375 43821.738281 39501.550781
91715.101562 43530.175781 39536.886719
91405.515625 43354.332031 52024.214844
91529.484375 43148.718750 52129.738281
96198.851562 84096.929688 26110.521484
91669.835938 43368.796875 52760.953125
91887.796875 43418.613281 53052.167969
91912.554688 43124.246094 52878.863281
92484.273438 43431.101562 40162.097656
92549.031250 43059.859375 53344.808594
92719.187500 43724.683594 53629.199219
92131.093750 43492.339844 53291.214844
92678.398438 43668.117188 40208.273438
93186.398438 43741.386719 40531.378906
93239.992188 43756.179688 53740.511719
93013.343750 43896.574219 53733.453125
93481.640625 43784.417969 40722.703125
93874.359375 43604.339844 41052.562500
93667.039062 43406.394531 53694.339844
95930.890625 36564.242188 49016.492188
95704.023438 36529.640625 49129.757812
94270.703125 43714.410156 41296.472656
94672.398438 43613.601562 41625.875000
94673.359375 43351.113281 41692.433594
94670.312500 43532.871094 53835.968750
95349.898438 43656.042969 42265.781250
95190.554688 43840.210938 42066.332031
95000.320312 43739.855469 41897.519531
95615.851562 43802.414062 42510.289062
95551.773438 43567.554688 53957.652344
94929.398438 43553.238281 53876.746094
95010.023438 43833.757812 53934.074219
95871.523438 43757.128906 42791.312500
96085.289062 43773.203125 43036.566406
95983.546875 43950.949219 54023.382812
96093.085938 43724.554688 54013.699219
96525.601562 43298.527344 43707.601562
96359.281250 43156.828125 43519.402344
96600.406250 43148.710938 43845.539062
96309.460938 43610.269531 54019.097656
96318.867188 43961.234375 54037.285156
97150.476562 42992.519531 44603.347656
97042.015625 42802.492188 44510.007812
96887.148438 42760.953125 44320.718750
96843.726562 43371.449219 54049.023438
97166.929688 43362.710938 54076.871094
97292.789062 43185.140625 44734.683594
97443.171875 43610.398438 44804.925781
97704.453125 43299.378906 54105.062500
97443.726562 43340.535156 54094.410156
97589.109375 43362.710938 45054.953125
97827.000000 43355.664062 45337.867188
97756.742188 43517.417969 45207.242188
97756.445312 43835.457031 45095.015625
97587.929688 43594.480469 44984.457031
98675.406250 43688.113281 45958.347656
98260.171875 43308.968750 45783.511719
98460.265625 43780.328125 45768.632812
99271.765625 43326.785156 46546.914062
99401.523438 43106.750000 54197.445312
99540.039062 43871.527344 46407.273438
100399.992188 43645.078125 47189.367188
100267.726562 43387.546875 47263.300781
100050.273438 43310.019531 47144.792969
100532.992188 43461.261719 47417.097656
100368.171875 43446.285156 53974.550781
100058.578125 43335.742188 54074.867188
100921.718750 43512.847656 47680.613281
100789.375000 43610.957031 47494.507812
100732.390625 43382.339844 47634.554688
101194.742188 43247.386719 48254.890625
101314.343750 43293.160156 53022.449219
101237.468750 43412.683594 48097.785156
101588.734375 43372.472656 48830.425781
101689.265625 43547.242188 48727.839844
101433.781250 43209.726562 48770.132812
101719.281250 43489.414062 49009.988281
101840.117188 43713.738281 48848.460938
101708.156250 43386.074219 50538.226562
101635.929688 43313.628906 50802.699219
101529.132812 43188.328125 51069.085938
101691.750000 43548.277344 51317.976562
101597.914062 43358.210938 51264.695312
101600.203125 43550.171875 52242.683594
101498.445312 43322.121094 52443.750000
101671.890625 43669.101562 52002.058594
101457.437500 43410.296875 52741.843750
101552.187500 43538.492188 52527.199219
101819.218750 43533.445312 50104.179688
101803.695312 43527.566406 50348.828125
87958.273438 43896.070312 49087.359375
88483.851562 44351.347656 49320.781250
88468.335938 44152.660156 49269.761719
88265.523438 44086.113281 49193.074219
88664.898438 44246.886719 49367.941406
89142.640625 44253.429688 49608.871094
89517.828125 43922.277344 49731.355469
89583.625000 44358.687500 49922.343750
89795.289062 44409.234375 50110.449219
89799.726562 43943.230469 49935.027344
89921.578125 43667.132812 49928.707031
89788.070312 43523.441406 49786.898438
90096.750000 43846.472656 50146.593750
90325.882812 44281.972656 50703.023438
90498.328125 44018.492188 37974.878906
90735.554688 43962.437500 51135.851562
90565.039062 44186.351562 51074.585938
90468.773438 44187.945312 50876.378906
90413.859375 44364.523438 50973.886719
90904.164062 44188.503906 51903.402344
91065.625000 43994.429688 52022.644531
90780.054688 44162.691406 51527.398438
91224.507812 43777.234375 52156.089844
91170.546875 43768.644531 51924.269531
91361.179688 43545.355469 52242.328125
79561.609375 60567.804687 26162.054688
79246.570312 60316.113281 26162.794922
91229.117188 44031.027344 52539.570312
91137.609375 44013.335938 52280.816406
91053.937500 44295.746094 52429.914062
91488.000000 43971.398438 39123.710938
91378.765625 43798.007812 52642.843750
91376.320312 44324.675781 52969.066406
91464.390625 44071.089844 52967.347656
91344.085938 44055.179688 52781.914063
91567.664062 44206.527344 53134.074219
91547.476562 44471.140625 53203.843750
92172.421875 43798.664062 53427.765625
93047.765625 44011.363281 40324.191406
93241.250000 44230.250000 40364.234375
93014.828125 44500.054688 53803.398438
93501.687500 43868.070312 53783.660156
93722.109375 43684.949219 53762.753906
93772.414062 43968.441406 53821.492187
93859.765625 44175.164062 40851.121094
94262.273438 43970.074219 41220.808594
94458.523438 43944.660156 41376.203125
94410.179688 44248.992188 41245.519531
94455.835938 44574.421875 41148.984375
102916.148438 46029.113281 47020.101562
102800.039062 45866.960938 47106.886719
95090.781250 44160.425781 53975.765625
95422.695312 43977.296875 42275.539062
96014.132812 44035.875000 42913.703125
94989.726562 44505.582031 53990.417969
95317.343750 44450.000000 54005.562500
96291.539062 44185.355469 43253.304688
96148.953125 44303.230469 43042.730469
96194.734375 44003.867188 43144.156250
96348.593750 43974.203125 43354.343750
96431.398438 44202.429688 43444.933594
96216.546875 44461.644531 54035.710938
96107.796875 44211.246094 54035.125000
96649.523438 43955.687500 54053.000000
96955.507812 43937.863281 44146.699219
96802.734375 43766.765625 43989.796875
97320.101562 44180.093750 44492.312500
97480.210938 44064.906250 44697.914062
97549.921875 43821.105469 44864.265625
97673.179688 44039.078125 44921.433594
97259.195312 43945.917969 44491.066406
97864.031250 44135.039062 45080.859375
97978.906250 43970.144531 45276.125000
98006.968750 44417.945312 45066.609375
98061.000000 44200.921875 45240.285156
98248.554688 44378.449219 45293.210938
97904.148438 43733.523438 45298.589844
98226.859375 44647.675781 54087.808594
98184.289062 43962.089844 54114.074219
98466.625000 44303.718750 45502.519531
98691.367188 44233.066406 45692.531250
98680.695312 44458.222656 45546.652344
98465.421875 44042.042969 45650.203125
98431.828125 43984.714844 54128.507813
98500.421875 44616.488281 54104.734375
98731.546875 43969.601562 54148.796875
99772.421875 43980.085938 46487.820312
99760.828125 44241.261719 46288.652344
99699.078125 43830.015625 54156.761719
99965.906250 44188.828125 46458.378906
100438.054688 44044.199219 54004.988281
100418.093750 44324.613281 54027.992188
100692.593750 44140.687500 53906.550781
100857.968750 43842.164062 47351.070312
100634.015625 43728.343750 47291.164062
100641.195312 44091.093750 46991.410156
100547.078125 44297.921875 46745.804688
100349.835938 44030.468750 46848.277344
100507.531250 43872.628906 47089.859375
101383.109375 44036.058594 53283.722656
101473.968750 43839.382812 53021.195312
101847.484375 44066.121094 48167.839844
102030.265625 44274.480469 48219.144531
101782.937500 43848.968750 48379.199219
101781.257812 43720.691406 48613.843750
101919.507812 43899.992188 48659.113281
101977.218750 44081.292969 48437.019531
102235.710938 44226.910156 49270.128906
101991.750000 43852.359375 49240.968750
102047.976562 43933.289062 49778.078125
101981.859375 44153.226562 51318.429688
101878.687500 43964.554688 51452.246094
101955.000000 44173.601562 51580.605469
101957.609375 44357.000000 52031.968750
102017.023438 44384.066406 51756.500000
88700.515625 44999.679688 35313.312500
88358.132812 45024.933594 49442.769531
89588.273438 44576.070312 50018.421875
89381.078125 44530.000000 49853.507812
89552.351562 44807.871094 50108.449219
89791.625000 44662.140625 50236.964844
96900.703125 83902.226562 26102.791016
90590.242188 44525.398438 51678.210938
90356.023438 44580.574219 51130.531250
90249.234375 44570.855469 50843.308594
90850.093750 44485.136719 52230.589844
90572.007812 44659.492188 51863.140625
90435.585938 44782.246094 51698.148438
91210.281250 44540.921875 52865.296875
91207.234375 44285.476562 52705.347656
91381.210938 44634.351562 53103.250000
91221.398438 44803.777344 53007.656250
91408.914062 44901.000000 53225.960938
91686.750000 44654.527344 38804.605469
91628.054688 45216.343750 53468.792969
91442.148438 45151.257812 53333.003906
91488.906250 45421.808594 53435.542969
91574.820312 44737.570312 53305.457031
91704.585938 44333.898438 53290.933594
92219.562500 44719.042969 53623.968750
92251.648438 44961.546875 53668.417969
93111.195312 44747.449219 53845.085938
93557.367188 45033.910156 53936.878906
93831.710938 45168.132812 53973.539062
93314.132812 44626.285156 53865.144531
93302.476562 44890.179688 53889.789062
93524.593750 44776.601562 53908.730469
93300.382812 44335.984375 53831.273438
93615.171875 44500.718750 53886.359375
93549.835938 44162.378906 53835.156250
93952.453125 44512.906250 53919.132813
93833.218750 44250.167969 53872.804688
93817.757812 44825.617188 53942.085938
94808.406250 44800.730469 41370.402344
94881.492188 45098.640625 41272.550781
94630.406250 44732.742188 41231.128906
95803.140625 44704.824219 54023.253906
96202.257812 44588.144531 43056.003906
96335.921875 44793.957031 43189.601562
96963.820312 45001.707031 43894.816406
96906.664062 44713.937500 54036.781250
97168.835938 44904.480469 44132.906250
97200.734375 44643.304688 44245.953125
97803.929688 44983.007812 44586.863281
97943.484375 44800.945312 44795.312500
97879.687500 44573.808594 44870.960938
98048.460938 44659.648438 44963.871094
98515.007812 44610.460938 45333.191406
98708.078125 44909.914062 45239.769531
98897.773438 44440.414062 45683.066406
98852.554688 44694.855469 45480.898438
99449.906250 44609.675781 54145.445312
99864.843750 44736.160156 45970.410156
100035.500000 44644.527344 46136.109375
99509.375000 44979.761719 54130.250000
100277.640625 44788.406250 46157.367188
100556.820312 44944.652344 46194.058594
100484.414062 44520.671875 46508.878906
100764.578125 44504.144531 53914.457031
100710.390625 44900.500000 53973.375000
100751.656250 44537.316406 46667.414062
101036.695312 44581.433594 46826.890625
100450.195312 44709.457031 46324.855469
101111.890625 44519.183594 53720.468750
94815.164062 45066.019531 53999.531250
101357.757812 44653.781250 47012.261719
101741.289062 44690.371094 47326.417969
101661.593750 44480.085938 47449.285156
101902.945312 44676.460938 47524.226562
101390.421875 44419.753906 47245.320312
101566.468750 44618.203125 47221.941406
101744.296875 44625.250000 52985.019531
101883.101562 44793.914062 52770.082031
102498.351562 44869.285156 48182.617188
102071.539062 44473.628906 48003.261719
102105.703125 44682.675781 47786.878906
82314.093750 106423.773438 44212.433594
82471.992188 106263.406250 44171.402344
101887.046875 44471.863281 47727.332031
97154.593750 37768.738281 49281.691406
102065.468750 44602.562500 51961.527344
102334.335938 44379.527344 49093.398438
102425.773438 44689.671875 50160.535156
102564.789062 44803.523438 49911.894531
102686.531250 44973.277344 49862.539062
102341.359375 44688.550781 50481.777344
102385.671875 44870.105469 50638.871094
87889.023438 45560.648438 49379.316406
73151.882812 53480.195312 26169.248047
88190.882812 45616.312500 49550.503906
88882.210938 45193.023438 49824.941406
88944.843750 44917.046875 49742.484375
88740.570312 45061.917969 49667.914062
89025.617188 45319.707031 50002.859375
88955.406250 45568.785156 50095.312500
93217.695312 97013.960938 64342.757812
93035.531250 97312.750000 64343.992188
76426.515625 55175.496094 26162.623047
76158.328125 54952.730469 26163.025391
89534.390625 45431.757812 50510.875000
89720.531250 45335.058594 50633.734375
83697.242188 111642.242188 43135.902344
90132.109375 45005.468750 51077.148438
90170.453125 45210.089844 51536.390625
90160.164062 45594.894531 52043.265625
90274.023438 45323.597656 52041.417969
94493.773438 70975.421875 26125.898438
90394.976562 45091.109375 52054.996094
90716.328125 45548.339844 52854.937500
90922.054688 45364.957031 52971.984375
90783.179688 45291.773438 52797.527344
90580.257812 45154.527344 52451.109375
90412.421875 45233.015625 52248.140625
90752.617188 45118.078125 52656.304688
90617.875000 45353.765625 52642.828125
91331.656250 45109.421875 37880.136719
91067.437500 44969.144531 52924.144531
90917.921875 45135.878906 52855.347656
91089.203125 45205.765625 53059.281250
91104.507812 45442.105469 53165.484375
90928.140625 45618.460938 53079.769531
91275.046875 45297.562500 53253.183594
91764.406250 45220.656250 38241.449219
91759.710938 45386.625000 53570.109375
92507.539062 45628.921875 53830.984375
92482.914062 45056.843750 53742.535156
93282.203125 45173.753906 53912.839844
93248.109375 45472.011719 53936.468750
94237.304688 45540.597656 40218.101562
94095.710938 45213.812500 40391.574219
93888.046875 45455.300781 53993.460938
95477.804688 45564.988281 53994.156250
95634.281250 45183.246094 42056.765625
95836.335938 45463.804688 42105.976562
95860.437500 45172.105469 42333.199219
95662.179688 45025.976562 54012.832031
95949.867188 44903.011719 54019.902344
96441.570312 45480.566406 42935.488281
96867.554688 45254.839844 43668.175781
97140.601562 44990.046875 54026.714844
104178.734375 87846.007812 63145.472656
104116.000000 88123.835938 63196.304688
97509.406250 45560.464844 44030.128906
97336.453125 44839.417969 44302.691406
97177.242188 45140.316406 44045.394531
97941.007812 45270.265625 44502.226562
98605.218750 45120.000000 45022.003906
98833.789062 45135.472656 45139.691406
98796.484375 45338.550781 44954.496094
98521.718750 45339.617188 44801.402344
88980.937500 69342.562500 26141.945312
72854.226562 53657.433594 26171.689453
98727.257812 45570.636719 44721.390625
99047.953125 45560.312500 44896.378906
99352.726562 45647.687500 44974.417969
99114.984375 44821.562500 54124.867188
99472.078125 45276.718750 54112.445312
99938.265625 45484.371094 54094.140625
99729.164062 45241.765625 54118.394531
99966.750000 45165.285156 45688.136719
93602.484375 85317.601562 26115.363281
100980.804688 44769.761719 53850.222656
101483.140625 45602.542969 46287.480469
101485.382812 45378.820312 46487.410156
101761.585938 45126.957031 46953.367188
101682.250000 44836.191406 47138.828125
101880.609375 45143.250000 52945.804688
101703.390625 45200.636719 53264.316406
101849.875000 45465.914062 53096.894531
101732.492188 44878.964844 53116.410156
101494.046875 44913.546875 46901.285156
101925.070312 45370.035156 46875.605469
102703.656250 45375.050781 47697.972656
102261.468750 45151.121094 47433.660156
101884.843750 44825.367188 47353.113281
102104.515625 45290.410156 47117.804688
101970.320312 45019.625000 47257.460938
102308.882812 45022.410156 47645.410156
102224.093750 45244.058594 52040.785156
102875.062500 45416.847656 47932.925781
