1230
57624.761719 90089.851562 29142.287109
57403.781250 90259.914062 29427.675781
57784.894531 90214.468750 52671.667969
57568.628906 89942.320312 52920.058594
57914.296875 89915.218750 28963.908203
57964.042969 90008.992188 29333.109375
57704.425781 90175.343750 29531.332031
57675.691406 90391.398438 30277.003906
57719.792969 90269.890625 29883.791016
57988.429688 90223.851562 30105.074219
58002.539062 90111.140625 29729.164062
57982.429687 90309.625000 30415.697266
57829.710938 90439.429688 30700.402344
58198.078125 90198.023438 30325.783203
58200.496094 90284.796875 30670.587891
58052.828125 90412.023438 30948.335938
58357.464844 90321.203125 31103.992188
57999.394531 89939.054688 52885.980469
58198.476562 90187.101562 52622.753906
58300.875000 89924.046875 29539.431641
58339.203125 90047.062500 30010.308594
58465.765625 90110.906250 30436.919922
58496.453125 90183.132812 30766.933594
58707.203125 90208.601562 31296.636719
58490.105469 90343.085938 31468.822266
58581.105469 90138.617188 52549.113281
58791.250000 90019.757812 30658.505859
59011.535156 89858.656250 30444.093750
58950.687500 90037.773438 31049.468750
58660.906250 90158.984375 30973.720703
58758.769531 90274.617188 31748.724609
59028.660156 90084.015625 31436.925781
59101.312500 90111.109375 31748.007812
58800.804688 90340.804688 32219.634766
59064.113281 90183.750000 32044.958984
59077.523438 90237.289062 32387.748047
58874.234375 90360.601562 32534.281250
59324.003906 90028.773438 31919.330078
59317.933594 90090.132812 32244.843750
58844.085937 90419.953125 32810.863281
59086.093750 90286.382812 32705.169922
59080.046875 90339.859375 33023.363281
58922.062500 90107.851562 52419.167969
59011.210938 90328.046875 52113.937500
38552.472656 31412.039063 66436.984375
38539.261719 31178.591797 66583.609375
59564.800781 89872.414062 31787.095703
59561.726562 89933.804688 32106.673828
59318.300781 90147.000000 32573.750000
59559.765625 89994.656250 32438.626953
59553.730469 90056.031250 32767.941406
59345.859375 90238.203125 33227.375000
59319.628906 90199.890625 32894.078125
59542.765625 90110.640625 33058.445312
48953.828125 52531.949219 26398.214844
49022.597656 52345.281250 26641.585938
49261.441406 52530.011719 26514.228516
59785.976562 89967.445312 32989.625000
59714.589844 90071.851562 33401.613281
59558.570312 90228.992188 33937.542969
59469.632812 90317.484375 34314.058594
59237.371094 90397.046875 33989.941406
59503.656250 90079.289062 52034.277344
59313.285156 90228.804688 52015.660156
59513.175781 90237.320312 51824.023438
59803.425781 89895.726562 32641.843750
60051.679687 89793.250000 32851.148438
60045.035156 89859.109375 33196.191406
59876.351562 90049.570312 33851.660156
59758.535156 90152.015625 34174.031250
59785.746094 90171.664062 34506.792969
59527.750000 90328.445312 34710.347656
59540.535156 90358.148438 35091.125000
59796.335938 90200.890625 34881.464844
59810.996094 90223.843750 35235.238281
60043.843750 90104.281250 35390.519531
59845.187500 90231.703125 35535.578125
60038.589844 90138.820312 35743.410156
59982.464844 90216.945312 36148.554688
59735.050781 90325.960938 35846.566406
60102.664062 90203.328125 36566.148438
59714.835938 90414.718750 36435.531250
59854.894531 90411.531250 36902.921875
60148.343750 90203.117188 51011.152344
60139.570312 90054.500000 51279.425781
59906.050781 90285.359375 51278.683594
59988.625000 90033.179688 51539.671875
59961.578125 58968.496094 52781.769531
60107.968750 59197.449219 53027.121094
60234.015625 89980.320312 35237.695312
60040.101562 90080.195312 35063.851562
60292.316406 89924.890625 34951.117188
60501.128906 89818.851562 35247.171875
60295.511719 89966.617188 35546.882812
60630.480469 89766.742188 35674.480469
60920.015625 89594.500000 35892.164062
60684.445312 89772.968750 36114.246094
60328.687500 89987.781250 35993.691406
60452.050781 89965.203125 36431.074219
60380.609375 90082.890625 36859.121094
60168.683594 90273.968750 37159.562500
60654.238281 89882.898438 36723.070312
60367.750000 90209.890625 37414.136719
60142.886719 90382.843750 37571.027344
60449.589844 90107.062500 37185.656250
60602.070312 90104.625000 50203.203125
60380.417969 90279.585938 50379.675781
60378.296875 90083.117188 50758.812500
60347.632812 89922.960938 51112.265625
60778.566406 90036.242188 37751.195312
60800.539062 90231.312500 38618.375000
61044.402344 90317.289062 48654.171875
61134.714844 90110.492188 48852.281250
60938.160156 90281.328125 49003.015625
60594.722656 90397.773438 49634.679688
60858.125000 90208.726562 49359.414062
60827.136719 90111.453125 49635.605469
60738.699219 90075.156250 49925.585938
38723.812500 31456.937500 66168.773438
38738.800781 31121.503906 66322.250000
61563.117187 90007.312500 39987.179688
61361.492188 90070.039062 39600.238281
61264.671875 90084.468750 48575.585938
61420.183594 90053.367188 48256.671875
61108.746094 89980.468750 49176.378906
61310.875000 89885.242188 48850.308594
61477.480469 90131.773438 40349.402344
61717.339844 89954.242188 40265.394531
61968.882812 89801.875000 40367.671875
61724.253906 90012.187500 40594.144531
61562.917969 90289.953125 41343.039062
61737.250000 90091.898438 41019.480469
61837.667969 90100.320312 41365.945312
61768.460938 90221.859375 41657.183594
61508.019531 90424.125000 41714.175781
62038.875000 90012.460938 41610.398438
61859.023438 90018.921875 47341.140625
62044.476562 89955.320312 47074.851562
62115.242187 89765.328125 47286.429688
61554.371094 90237.046875 47583.531250
61660.285156 90302.554688 47206.710938
61589.058594 90014.726562 47938.660156
61760.441406 89949.867188 47682.445312
61351.453125 90278.757812 47972.355469
62470.351562 89742.523438 41855.320312
62245.300781 89928.898438 41906.503906
61976.820312 90142.585938 41947.085938
62187.886719 90057.875000 42243.320312
62206.445312 90057.351562 46482.960938
62422.351562 89906.328125 46331.457031
62021.496094 90289.578125 46342.710938
62003.769531 90201.531250 46628.226562
61871.863281 90202.812500 46934.746094
62127.964844 90000.617188 46801.664062
60005.371094 59000.207031 52194.550781
62479.507812 89818.234375 42201.687500
38085.957031 31110.898437 67296.593750
62550.585938 89910.078125 42821.742188
62348.402344 90208.156250 43500.562500
62536.613281 89997.359375 43187.480469
62839.503906 89786.156250 43412.757812
62445.843750 90172.476562 43838.980469
62614.351562 90004.296875 43603.234375
62837.117187 89841.046875 43787.488281
62419.195313 90225.500000 44455.550781
62295.949219 90318.007812 44119.917969
62549.597656 90109.406250 44144.976562
37964.718750 31414.566406 67296.179688
62559.554688 89884.039062 46026.832031
62428.769531 90081.804688 45745.511719
40147.335938 90382.460938 32346.283203
40518.628906 90513.437500 32322.509766
40360.835938 90529.015625 32629.289062
41107.675781 90801.835938 52040.398438
40801.550781 90692.992188 52017.289062
40925.851562 90835.296875 51768.121094
40953.675781 90661.468750 52243.429688
41358.449219 90449.132812 31169.019531
41138.730469 90472.398438 31447.085937
40771.937500 90341.765625 31428.857422
40927.550781 90498.195312 31748.777344
41283.761719 90794.625000 32324.968750
40870.390625 90640.375000 32316.189453
41068.277344 90636.562500 32045.384766
40713.859375 90507.101562 32032.509766
40987.378906 90748.015625 32567.830078
40687.226562 90643.906250 32604.193359
41611.890625 90837.125000 52389.746094
41245.058594 90715.890625 52370.179688
41441.429688 90901.828125 52095.574219
41208.351562 90573.257812 52659.742188
41379.234375 90525.523438 52891.148438
41473.589844 90679.039062 52639.265625
41649.460938 90496.515625 53139.921875
41927.550781 90304.515625 30332.201172
41596.031250 90212.953125 30352.884766
41752.226562 90367.789062 30623.216797
41571.554688 90421.953125 30908.904297
41322.988281 90638.125000 31765.673828
41455.312500 90575.250000 31441.917969
41752.179688 90716.226562 31572.392578
41900.332031 90680.453125 52937.578125
41633.246094 90632.960938 52856.109375
41776.582031 90771.054688 52660.808594
42028.347656 90567.046875 53248.800781
41684.054688 90565.765625 31207.619141
41899.296875 90522.375000 30911.238281
42033.292969 90678.039062 31216.654297
42584.968750 90519.640625 30398.666016
42715.914062 90652.179688 30632.363281
42826.078125 90781.156250 30863.351562
43062.816406 90897.609375 30963.085938
42757.539062 90884.734375 31155.281250
42238.285156 90621.640625 30904.626953
43311.328125 90900.046875 53336.484375
42790.187500 90768.101562 53311.484375
43057.921875 90923.781250 53132.109375
42402.218750 90645.476562 53325.738281
42559.582031 90800.531250 53102.933594
42624.199219 90560.156250 53632.687500
42881.398438 90486.578125 53930.269531
42893.761719 90579.539062 30335.587891
42921.757812 90455.156250 30017.859375
43187.214844 90558.523438 30097.107422
43318.570312 90623.554688 53926.425781
43048.230469 90707.835938 53594.542969
43106.730469 90393.078125 54231.941406
43519.140625 90683.968750 30184.652344
43446.820312 90538.367188 29893.441406
43819.824219 90635.296875 29902.095703
43706.214844 90657.273438 54087.777344
43703.851562 90821.250000 53745.683594
43444.593750 90491.882812 54250.730469
43778.667969 90482.117188 54454.316406
43933.617188 90530.851562 29606.087891
43934.429688 90416.468750 29347.417969
44318.066406 90138.132812 28537.837891
44549.058594 90259.320312 28697.425781
44289.437500 90275.992188 28856.814453
44217.734375 90580.343750 54518.730469
44057.230469 90696.320312 54208.000000
44031.710938 90373.335938 54784.910156
44622.578125 90886.929688 30029.337891
44433.855469 90738.695312 29813.216797
44704.457031 90755.937500 29722.744141
44261.058594 90858.359375 53979.671875
44421.675781 90760.937500 54271.667969
44459.535156 90475.929688 54839.566406
44676.191406 90148.585938 28394.689453
44859.355469 90335.156250 28725.214844
45001.593750 90763.539062 29603.933594
45170.601562 90773.132812 54614.468750
45150.707031 90593.710938 54978.664062
44827.546875 90640.328125 54724.917969
44791.296875 90490.359375 54995.253906
45453.273438 90744.945312 54808.390625
45276.550781 90447.914062 55321.011719
45564.839844 90473.648438 55419.808594
45393.835938 90614.039062 29110.064453
46011.832031 90717.718750 55106.812500
46193.125000 90618.023438 55399.917969
45851.695312 90557.625000 55387.062500
46010.589844 90479.023438 55609.269531
46397.253906 90770.867188 55123.640625
46560.738281 90651.578125 55448.699219
46303.328125 90490.328125 55694.878906
46808.410156 90807.492188 55150.890625
46676.085938 90511.265625 55774.339844
47213.035156 90438.570312 56057.007812
46978.582031 90671.242188 55517.195312
47363.660156 90607.992188 55738.707031
47008.375000 90523.703125 55841.699219
47417.605469 90362.945312 56249.972656
47568.738281 90489.921875 56030.082031
48117.808594 90622.070312 55787.839844
47763.113281 90613.742188 55787.984375
47936.367188 90718.710938 55545.746094
47923.246094 90502.140625 56053.175781
47720.500000 90370.000000 56296.023438
48281.019531 90504.992188 56070.792969
48075.125000 90377.054688 56334.746094
48688.246094 90717.640625 55484.578125
48482.738281 90619.835938 55782.574219
48296.097656 90742.156250 55464.398437
48651.988281 90497.234375 56084.921875
48433.531250 90382.343750 56356.941406
49068.902344 90696.953125 55457.804688
48857.855469 90603.921875 55781.722656
49077.929688 90471.335938 56103.625000
48790.437500 90369.804688 56390.652344
49155.355469 90313.289062 56502.234375
49694.683594 90654.429688 55334.953125
49438.066406 90624.765625 55559.828125
49371.074219 90727.367188 55241.250000
49189.226562 90584.859375 55766.566406
49513.707031 90494.500000 55928.566406
49403.078125 90391.515625 56258.652344
49968.527344 90663.531250 55097.125000
49617.949219 90735.906250 55071.312500
49978.347656 90586.890625 55401.550781
49798.492188 90550.687500 55632.222656
50296.289062 90747.835938 54354.203125
50128.097656 90709.460938 54735.437500
49898.187500 90820.468750 54463.117187
50402.136719 90580.554688 55011.687500
50218.531250 90559.632812 55305.347656
50206.117188 90475.742188 55622.371094
50529.816406 90461.992188 55370.992188
50821.324219 90719.476562 53796.000000
50872.058594 90633.664062 54087.175781
50579.375000 90735.195312 54049.273438
50715.597656 90616.867188 54403.328125
50959.523438 90501.617188 54587.269531
50722.531250 90540.914062 54773.417969
50454.746094 90642.109375 54661.781250
50784.433594 90452.007812 55098.218750
51013.085938 90430.640625 54852.015625
51384.457031 90652.570312 53377.308594
51080.210938 90707.335938 53537.277344
51195.332031 90794.773438 53189.417969
51465.003906 90526.156250 53672.781250
51129.253906 90589.437500 53899.671875
51115.093750 90506.796875 54285.589844
51433.703125 90441.593750 54042.046875
51228.636719 90399.757812 54616.511719
51754.816406 90756.718750 52871.324219
51865.742187 90579.351562 53126.117187
51537.179688 90696.617188 53134.875000
51676.050781 90543.296875 53377.992188
51962.691406 90442.726562 53346.937500
51881.800781 90373.929688 53630.007812
51979.957031 90239.257812 53953.277344
51697.617188 90374.726562 53886.343750
52481.011719 90688.921875 52598.851562
52450.347656 90475.398438 52915.871094
52122.179688 90622.992188 52876.937500
52238.398437 90290.125000 53453.347656
52183.644531 90445.929688 53151.585938
52851.898437 90530.664062 52631.972656
52858.191406 90746.929688 52385.019531
52789.046875 90346.710938 52924.753906
53158.125000 90842.046875 52213.605469
53165.664062 90596.187500 52444.351562
53480.839844 90449.843750 52506.167969
53821.238281 90812.757812 52124.683594
53729.882812 90558.835938 52336.351562
53468.820312 90696.906250 52270.519531
54049.164062 90539.156250 52304.433594
54233.296875 90773.929688 52110.535156
54569.734375 90765.742188 52105.128906
54446.855469 90523.218750 52281.609375
54528.386719 90694.921875 28633.414062
29517.837891 31797.412109 65365.621094
29719.931641 31647.158203 65550.781250
54842.464844 90976.273438 51990.152344
54893.917969 90592.187500 52231.593750
54973.816406 90516.976562 28227.626953
55075.238281 90588.695312 28505.867188
55132.785156 90682.906250 28838.900391
55125.136719 90785.414062 29165.138672
55236.179688 90848.750000 52087.597656
55365.937500 90528.859375 52298.707031
55471.906250 90563.343750 28632.867188
55948.367188 90460.101562 28608.310547
55395.511719 90797.953125 29353.298828
55429.296875 90690.453125 29022.318359
55707.300781 90703.953125 29245.802734
55636.457031 90793.851562 52153.589844
55844.109375 90465.304688 52387.320312
56065.664062 90574.960938 29084.433594
56279.390625 90440.796875 28809.992188
56473.445312 90467.187500 29082.707031
56036.343750 90790.054688 52192.925781
56268.019531 90524.164062 52390.722656
56551.445313 90619.843750 29692.763672
56569.402344 90715.437500 30063.173828
56470.683594 90853.218750 52182.558594
56694.500000 90517.500000 52433.910156
57165.582031 90500.257812 29981.259766
56956.382812 90624.851562 30186.707031
56714.136719 90786.296875 30496.494141
57102.640625 90666.140625 30539.644531
56938.457031 90796.703125 30828.464844
57253.597656 90694.171875 30866.425781
57353.648438 90736.640625 31197.593750
57089.906250 90806.531250 31083.410156
56936.152344 90803.828125 52228.867188
57141.878906 90507.507812 52458.695312
57299.050781 90525.875000 30260.078125
57435.738281 90400.687500 29969.285156
57457.417969 90554.304688 30600.228516
57575.859375 90596.101562 30952.146484
57708.683594 90628.914062 31314.001953
57968.691406 90570.343750 31512.226562
57362.921875 90784.734375 52223.382812
57787.156250 90766.484375 52171.699219
57575.253906 90498.093750 52446.144531
57840.539062 90514.625000 31030.460938
58002.312500 90472.226562 52398.078125
58251.554688 90729.804688 52061.511719
58411.664062 90426.414062 31716.498047
58471.484375 90461.703125 32055.466797
58181.476562 90628.359375 32274.978516
58376.484375 90649.609375 32899.902344
58552.371094 90510.226562 32542.417969
58632.937500 90535.812500 32918.445312
58121.945312 90872.500000 33593.375000
58236.195312 90764.312500 33225.707031
58455.386719 90710.570312 33537.777344
58549.800781 90617.109375 33197.691406
58626.992188 90799.140625 51799.601563
58658.480469 90535.226562 52086.105469
58402.183594 90402.570312 52348.289062
58823.312500 90479.710938 33131.042969
58762.738281 90556.195312 33459.222656
59061.730469 90399.250000 33362.730469
59002.511719 90476.570312 33712.804688
29850.230469 30920.207031 64635.132812
29451.837891 30996.839844 63920.085938
58687.578125 90751.781250 34701.296875
58848.464844 90700.585938 34948.476562
58603.609375 90841.304688 35072.355469
58920.699219 90740.578125 35570.261719
58707.710938 90874.453125 35701.535156
59247.199219 90413.250000 51835.074219
58946.007812 90593.265625 51838.500000
59207.785156 90619.171875 51598.296875
59050.640625 90607.054688 35030.601562
59011.160156 90590.085938 34696.316406
59275.148438 90479.390625 34910.187500
58886.761719 90715.250000 35235.988281
59227.332031 90551.156250 35353.738281
59056.652344 90775.351562 36314.890625
59359.675781 90610.781250 36379.082031
59191.667969 90741.398438 36581.132812
59194.730469 90813.117188 51344.769531
59449.097656 90608.687500 51376.925781
59442.398438 90630.382812 36770.917969
59876.105469 90485.187500 37324.347656
59573.292969 90633.437500 37174.886719
59649.378906 90667.125000 37527.367188
29720.285156 30878.615234 64298.734375
59687.875000 90717.703125 50905.390625
59896.664062 90657.437500 50669.863281
59918.886719 90470.914062 50954.523438
59657.066406 90426.859375 51405.125000
59685.218750 90552.343750 51174.601562
59728.199219 90238.968750 51586.175781
60151.273438 90521.992188 38157.781250
60445.011719 90340.742188 38145.152344
60298.847656 90493.218750 38404.804688
60056.398438 90769.773438 38934.734375
60323.804688 90551.289062 38717.164062
60370.394531 90601.367188 39070.066406
60187.992188 90755.429688 39240.886719
60392.164062 90656.078125 39392.980469
60316.656250 90714.234375 49669.753906
60452.078125 90708.195312 49348.132812
60093.484375 90617.851562 50359.328125
60145.859375 90749.976562 49993.230469
60299.238281 90503.406250 50132.906250
60498.218750 90318.914062 50030.187500
60141.960938 90388.484375 50688.320312
60826.902344 90450.039062 39776.632812
60823.929688 90567.054688 40363.164062
60811.535156 90518.367188 40081.902344
61020.882812 90414.445312 40251.019531
29842.449219 30971.769531 58319.300781
30039.271484 30855.646484 58101.230469
60695.332031 90490.125000 49188.984375
61388.378906 90281.820312 40788.988281
61006.847656 90504.570312 40634.585938
61228.304688 90310.468750 40414.058594
60694.445312 90706.265625 40594.722656
60802.003906 90710.484375 40922.535156
60846.746094 90749.812500 41200.878906
61088.953125 90555.015625 41086.820312
60970.542969 90727.695312 41435.976562
61081.042969 90740.445312 41757.988281
61263.488281 90531.664062 41467.660156
61303.718750 90596.039062 41809.812500
61466.632812 90544.945312 42046.429688
61410.953125 90679.437500 42377.398438
61216.027344 90736.523438 42080.671875
61530.074219 90662.195312 46650.320312
61604.265625 90486.335938 46919.125000
61361.105469 90741.929688 46896.101562
61393.019531 90559.835938 47266.148438
60856.214844 90763.492188 48155.214844
60987.324219 90764.820312 47811.566406
61097.523438 90531.570312 48057.937500
61249.988281 90527.640625 47689.230469
60949.203125 90545.625000 48405.289062
61189.019531 90302.781250 48318.292969
61919.863281 90272.453125 42277.695312
61713.597656 90349.523438 41991.562500
61665.667969 90475.289062 42321.851562
62068.605469 90426.882812 43441.031250
61915.660156 90592.750000 43711.789062
61795.281250 90635.773438 43383.074219
62043.738281 90542.390625 44840.937500
62176.652344 90406.500000 45125.609375
61937.570312 90615.398438 45160.710938
62022.921875 90462.140625 45689.570312
62022.093750 90386.234375 46019.933594
61765.179687 90643.781250 45938.222656
62270.730469 90279.406250 45464.851562
62048.316406 90490.390625 45391.484375
61781.757812 90439.320312 46576.070312
61579.039062 90718.953125 46319.496094
61931.187500 90475.070312 43120.421875
62187.789062 90377.585938 43776.316406
62121.800781 90477.406250 44452.671875
62024.132812 90540.476562 44056.414062
40515.804688 90712.273438 33220.828125
40727.437500 90833.054688 33399.886719
40625.644531 90866.179688 33771.078125
40914.964844 90957.500000 33617.355469
40982.242188 91043.531250 33887.011719
40728.750000 90983.031250 34158.832031
40834.632812 91097.851562 34547.792969
40745.964844 91186.750000 35479.726562
40405.781250 91026.937500 35534.890625
40903.113281 91298.820312 35816.710938
40763.437500 91257.937500 36153.890625
40572.875000 91138.195312 35862.785156
41174.847656 91599.093750 41588.773438
40907.593750 91421.242188 41830.210938
40866.898438 91418.710938 41430.343750
40852.324219 91220.921875 50183.199219
40905.855469 91290.468750 49879.074219
41160.503906 91374.437500 50064.429688
41114.128906 91291.164062 50423.425781
40801.398438 91131.875000 50535.468750
40769.195312 91035.976562 50892.328125
41071.457031 91195.554688 50771.089844
41076.953125 91098.140625 51142.472656
40996.777344 90962.578125 51476.960937
41275.019531 90976.640625 51744.972656
41225.699219 90880.867188 32721.767578
40523.269531 90654.492188 32927.011719
40891.988281 90787.382812 32884.441406
40714.312500 90768.617188 33121.074219
41201.585938 90964.367188 33094.960938
40916.792969 90862.429688 33176.417969
41042.667969 90962.554688 33386.539062
41294.027344 91075.257812 33392.449219
41536.617188 91309.039062 33926.906250
41294.515625 91190.078125 33904.597656
41498.527344 91220.609375 33616.339844
41176.945312 91077.359375 33634.863281
41127.988281 91179.125000 34236.871094
41306.605469 91245.898438 50956.722656
41410.996094 91208.523438 51224.171875
41257.503906 91082.703125 51427.300781
41532.042969 91151.929688 51528.746094
41600.417969 90806.132812 31989.425781
41733.046875 90961.460938 32309.759766
41498.062500 90953.570312 32583.724609
41500.515625 91039.312500 32885.164062
41758.000000 91088.429688 32676.271484
41792.074219 91200.664062 33012.164062
41521.910156 91138.656250 33231.105469
41985.074219 91436.382812 51164.820312
41906.554688 91262.109375 51586.535156
41688.507812 91288.585938 51298.789062
41655.757812 91072.664062 51856.750000
42027.781250 91139.070312 51998.078125
41746.199219 90983.718750 52153.433594
41991.425781 90953.281250 52402.363281
42060.468750 90830.453125 52723.539062
42187.515625 90846.085938 31526.812500
42127.863281 91028.054688 32065.056641
42038.175781 91140.453125 32478.656250
42263.039062 91423.625000 51466.500000
42346.855469 91255.695312 51955.449219
42203.730469 91297.132812 51752.097656
42485.246094 91388.625000 51729.945312
42349.421875 91130.773438 52240.253906
42374.796875 90966.656250 52623.476562
42266.738281 90771.742188 52980.273438
42392.808594 90778.265625 31181.380859
42522.406250 90914.953125 31413.646484
42443.156250 91017.382812 31733.000000
42491.535156 91159.937500 32043.197266
42544.722656 90896.632812 52885.066406
42791.398438 91046.710938 31505.804688
42727.832031 91022.289062 52715.445312
42944.984375 91147.031250 52560.023438
43022.562500 91050.609375 52823.308594
43008.410156 90750.281250 30663.708984
43244.730469 90714.703125 30424.910156
43312.597656 90876.375000 30744.841797
43861.410156 91372.898438 52514.109375
43541.570312 91248.226562 52650.441406
43466.132812 91354.750000 52363.542969
43769.640625 91208.796875 52863.316406
43373.734375 91085.359375 52942.250000
43671.625000 91049.414062 53196.871094
43899.578125 90999.437500 53447.671875
44086.277344 90932.906250 53713.675781
44221.214844 90806.046875 30059.982422
43869.636719 90819.437500 30277.931641
43576.343750 90847.492188 30512.552734
43630.457031 91015.750000 30836.423828
43906.531250 90988.851562 30611.019531
43955.761719 91162.148438 30932.482422
44077.554688 91303.335938 52784.109375
44082.300781 91172.578125 53112.906250
44269.203125 91080.992188 53445.277344
43961.023438 90799.750000 53944.496094
44779.160156 91214.671875 30582.796875
44482.906250 91100.117188 30514.568359
44706.117188 91054.226562 30315.986328
44192.273438 90967.289062 30406.064453
44225.968750 91130.515625 30711.326172
44738.339844 91348.718750 52948.007812
44854.675781 91255.359375 53244.925781
44493.296875 91220.593750 53186.113281
44434.304688 91000.937500 53733.671875
44608.839844 90916.625000 54022.808594
45358.179688 90784.015625 29487.482422
44940.414062 90890.695312 29890.369141
45205.421875 90892.859375 29776.019531
45203.058594 91047.187500 30073.572266
44998.500000 91148.804688 30355.736328
45091.300781 91320.562500 30630.162109
44895.765625 91005.484375 30134.527344
44628.039062 91132.000000 53486.289062
44971.765625 91165.406250 53542.929688
44769.257812 91050.601562 53768.191406
44953.906250 90978.609375 54034.609375
44823.207031 90813.859375 54357.761719
45342.386719 91174.335938 53661.660156
45275.152344 91051.906250 53981.386719
45054.476562 91086.710938 53796.816406
45218.773438 90924.523438 54284.578125
45528.871094 90881.789062 54521.648438
45681.519531 90746.023438 29270.966797
45517.175781 90986.632812 29822.183594
45745.476562 91204.882812 53715.324219
45551.984375 91113.250000 53917.851563
45855.984375 91109.203125 54034.417969
45562.355469 91014.718750 54194.617188
45942.804688 90980.250000 54423.867188
45795.628906 90812.226562 54797.476562
45860.835938 91018.406250 29739.683594
45986.058594 90882.539062 29423.136719
46179.605469 91061.562500 29690.529297
46227.675781 91113.414062 54136.855469
46103.015625 91210.250000 53810.835938
46195.140625 90875.101562 54793.765625
46666.519531 90708.734375 28782.605469
47261.269531 90852.710938 28858.750000
47165.777344 90993.960938 29181.582031
47008.777344 91119.695312 29482.455078
47169.976562 91301.492188 29768.677734
29698.492188 30967.322266 58612.808594
29991.453125 30640.267578 58504.875000
46451.042969 91218.132812 53874.812500
46603.132812 91126.101562 54191.128906
46764.421875 91027.945312 54524.765625
46972.308594 91130.125000 54231.667969
47154.097656 91018.828125 54603.835938
46390.730469 91012.085938 54481.585937
46578.781250 90911.640625 54818.582031
47176.742188 90883.000000 55020.824219
47352.335938 90710.093750 28519.283203
46995.734375 90707.203125 28648.410156
47026.882812 90539.476562 28262.841797
46809.628906 91228.000000 53903.417969
47181.777344 91227.585938 53928.238281
47349.882812 91128.757812 54250.953125
47545.480469 91039.835938 54549.660156
47426.003906 90958.750000 54819.195313
47553.585938 90876.890625 55080.636719
47360.714844 90766.031250 55364.714844
47739.195312 90795.609375 55331.894531
47774.656250 90713.140625 28378.027344
47624.156250 90864.632812 28756.552734
47512.335938 91006.539062 29086.748047
47557.039062 91217.093750 53949.476562
47922.328125 91200.609375 53959.781250
47730.601562 91123.390625 54249.242188
47918.273438 91035.031250 54541.835938
47735.398438 90958.835938 54823.382812
47897.445312 90876.914062 55090.910156
47637.707031 90705.835938 55558.000000
48024.921875 90802.585938 55317.167969
47997.406250 90892.203125 28697.742188
48299.437500 90935.046875 28705.833984
48184.199219 91039.250000 28953.943359
48116.343750 91110.242188 54238.082031
48305.917969 91016.828125 54541.437500
48091.539062 90947.695312 54834.226562
48226.722656 90856.601562 55128.023438
48249.980469 90784.265625 28392.316406
48567.148438 90915.554688 28601.103516
48495.398438 91046.171875 28893.609375
48392.203125 91176.859375 29184.410156
48279.281250 91188.835938 53924.546875
48545.558594 91089.601562 54198.839844
48701.781250 90980.367188 54563.359375
48461.613281 90920.468750 54861.843750
48567.812500 90821.429688 55182.105469
49129.343750 91117.093750 53822.449219
49175.343750 91045.531250 54072.800781
48877.429688 91113.406250 53974.347656
48937.191406 91026.195312 54283.828125
49092.507812 90933.406250 54576.300781
48870.355469 90870.898438 54919.500000
48856.894531 90785.632812 55235.382812
49095.906250 90787.906250 55145.250000
49155.507812 90956.867188 28590.349609
49525.550781 90994.203125 28640.279297
49889.617188 90995.289062 28634.187500
49709.921875 91122.265625 28915.451172
49410.156250 91053.796875 53878.429688
49460.410156 90975.859375 54163.886719
49232.402344 90977.750000 54317.421875
49495.691406 90892.187500 54492.910156
49324.257812 90824.250000 54889.328125
50097.859375 91112.929688 28903.351562
49662.148438 91060.335938 53661.875000
49716.867188 90969.062500 53976.003906
49717.238281 90907.203125 54247.718750
49994.800781 90870.843750 54136.511719
49738.843750 90779.304688 54793.171875
50550.445312 91092.203125 28897.478516
50393.152344 91380.937500 29501.242187
50263.046875 91245.335938 29200.009766
50569.261719 91259.062500 29264.189453
50375.375000 91035.718750 53204.976562
49998.054688 91113.695312 53238.324219
50127.894531 91172.304688 53007.921875
50157.101562 91000.632812 53466.480469
49892.339844 91058.921875 53483.839844
50030.128906 90948.734375 53766.558594
50480.621094 90865.617188 53642.156250
50280.156250 90832.226562 53993.417969
51189.609375 90922.898438 28603.871094
51129.257812 91048.031250 28893.044922
47669.152344 52446.394531 26065.546875
47965.300781 52373.078125 26236.031250
50886.832031 91197.070312 29181.970703
50802.062500 91161.882812 52694.691406
50674.894531 91045.273438 52985.757812
50387.511719 91203.679688 52814.507813
51012.328125 90970.921875 52937.398438
50793.511719 90792.023438 53564.789062
50799.777344 90883.843750 53291.421875
51378.839844 90959.445312 28731.974609
51473.410156 91055.476562 28980.681641
51272.781250 91186.835938 29234.646484
51227.457031 91097.195312 52601.503906
51468.464844 90844.351562 28451.791016
51622.742188 91165.906250 29262.025391
51556.093750 91325.484375 52193.605469
51866.367188 91119.218750 52327.148438
51514.234375 91147.625000 52409.152344
52020.472656 90845.164062 52601.730469
51626.136719 90965.289062 52612.558594
51387.906250 90874.585938 52887.125000
51667.738281 90939.195312 28737.748047
51878.546875 90823.523438 28472.076172
52026.414062 90925.210938 28772.707031
51813.425781 91040.773438 29016.156250
51959.710937 91143.054688 29281.816406
52157.769531 91026.382812 29051.726562
52304.015625 91134.328125 29330.859375
52281.871094 90976.523438 52341.773438
52175.187500 91211.625000 52141.417969
52091.929688 90709.023438 28185.541016
52470.992188 90673.554688 28150.179688
52318.269531 90808.867188 28513.484375
52332.492188 90925.898438 28835.123047
52642.003906 90877.046875 28762.121094
52510.851562 91004.585938 29066.126953
52858.906250 90983.531250 52162.324219
52535.761719 91153.203125 52103.011719
52847.980469 91202.273438 51995.609375
52606.550781 90900.156250 52310.722656
52884.683594 90961.382812 29028.570312
53144.750000 91040.250000 29280.365234
53050.367188 91164.000000 29558.398438
53451.859375 90975.468750 52059.250000
53126.351562 91104.437500 52017.640625
53721.992187 90747.687500 28596.316406
53354.773438 90797.289062 28672.896484
53437.011719 90707.390625 28424.386719
53012.699219 90834.382812 28714.218750
53253.425781 90909.257812 28964.599609
53183.605469 91266.257812 29825.982422
53377.785156 91127.710938 29547.070312
53557.363281 91238.125000 29857.541016
29904.945312 31351.929688 57664.644531
53862.710938 90859.984375 28953.554688
53551.367188 90857.671875 28881.011719
53563.796875 90977.585938 29209.822266
53984.246094 90964.710938 29279.097656
53768.980469 91095.023438 29564.445312
54158.292969 91060.398438 29588.640625
53974.976562 91207.890625 29906.843750
53999.011719 91319.437500 51800.300781
54086.789062 91050.046875 51947.320313
53742.515625 91156.148438 51911.101563
54176.195312 90747.960938 28699.107422
54183.441406 90862.195312 29042.523438
54551.773438 91027.914062 29639.972656
54297.839844 91134.562500 29830.570312
54442.992188 91008.484375 51960.210938
54300.882812 91281.984375 51811.835937
54639.984375 91255.437500 51829.328125
54781.246094 90881.796875 29308.962891
54366.320312 90933.406250 29305.718750
54267.921875 91225.625000 30052.281250
54531.542969 91152.921875 29968.472656
54462.054687 91285.304688 30281.927734
55184.152344 91146.585938 51914.882812
55112.550781 90884.093750 29470.371094
54882.277344 90967.414062 29609.226562
55118.519531 90977.414062 29758.427734
54826.652344 91065.281250 29863.740234
54776.914062 91181.156250 30155.597656
55086.207031 91086.171875 30058.066406
55014.238281 91211.390625 30367.894531
55500.687500 91079.937500 51974.492188
55627.906250 90826.320312 29597.369141
55880.324219 90865.695312 29923.210938
55440.582031 90968.359375 29926.775391
55679.265625 91012.664062 30239.365234
55339.171875 91111.265625 30289.705078
55183.144531 91360.664062 30909.640625
55484.101562 91267.460938 30866.693359
55370.343750 91413.742188 31225.402344
55248.285156 91242.726562 30610.691406
55572.136719 91139.742188 30549.093750
55846.968750 91062.046875 52010.750000
55691.785156 91318.867188 51848.582031
55981.128906 90720.890625 29512.033203
56255.417969 90731.656250 29793.652344
56207.113281 90842.601562 30137.427734
55962.472656 90942.210938 30247.951172
55880.882812 91040.398438 30499.375000
56160.855469 90941.632812 30434.529297
56102.902344 91044.117188 30727.183594
55801.273438 91156.078125 30799.201172
55722.976562 91279.093750 31119.070313
56034.054688 91158.359375 31040.423828
55962.453125 91277.593750 31366.453125
56165.546875 91048.359375 52040.296875
56064.457031 91331.343750 51853.000000
56409.648438 90844.820312 30354.259766
56630.464844 90913.328125 30869.492187
56333.257813 91036.296875 30955.082031
56557.378906 91021.968750 31183.005859
56268.460938 91148.101562 31275.867188
56207.246094 91260.335938 31605.240234
56509.277344 91121.625000 31494.707031
56474.234375 91221.406250 31831.314453
56705.671875 91362.515625 51818.167969
56779.964844 91093.234375 52017.324219
56426.121094 91197.531250 51948.367188
57057.824219 90896.312500 31407.080078
56839.460937 90906.398438 31123.835938
56753.042969 91002.226562 31377.824219
56789.699219 91062.679688 31674.994141
56795.292969 91161.335938 32094.488281
57207.128906 91032.804688 32257.244141
57504.417969 91059.101562 33028.316406
57502.433594 91125.023438 33399.699219
57222.230469 91212.148438 33185.488281
57159.652344 91059.031250 52018.464844
56989.718750 91269.734375 51867.832031
39001.546875 30935.312500 66037.148438
39075.132812 30545.376953 66126.390625
38847.515625 30736.781250 66363.476562
57497.023438 90850.804688 31954.203125
58032.625000 90968.531250 33954.492188
57781.179688 91042.296875 33670.675781
57556.101562 91047.679688 51967.542969
57319.121094 91327.679688 51763.425781
57727.691406 91278.351562 51705.195312
58053.023438 90792.546875 32890.203125
39838.738281 90831.250000 45941.468750
58034.390625 91233.195312 51638.722656
58320.539062 91053.335938 51688.207031
57950.898437 91026.515625 51879.230469
58381.906250 90912.335938 34757.730469
58291.414062 91009.132812 35106.125000
58229.535156 91098.007812 35455.117188
58478.906250 90988.320312 35620.785156
58242.937500 91164.937500 35873.757812
58673.281250 90852.390625 35424.070312
58576.285156 90987.335938 35937.429688
58424.226562 91118.156250 36171.972656
58711.097656 90977.460938 36310.355469
58414.171875 91184.617188 36473.726562
58451.332031 91372.304688 51229.273438
58691.910156 91203.054688 51265.117188
58472.675781 91197.898438 51434.500000
58230.472656 91314.984375 51445.035156
59154.777344 90807.742188 36813.328125
59259.218750 90803.695312 37090.453125
39222.199219 30681.593750 65843.789062
39353.949219 30785.738281 65601.671875
58690.652344 91383.757812 51022.632812
58935.425781 91205.812500 51044.679688
59187.734375 91226.296875 50736.609375
59195.382812 91004.101562 51069.785156
58661.933594 91020.218750 51516.332031
58927.562500 90816.859375 51571.859375
58945.289062 91270.460938 38153.343750
59233.992187 91059.765625 38050.304688
59137.832031 91202.031250 38343.195312
59247.437500 91393.593750 39289.171875
59234.089844 91311.640625 38958.441406
59484.160156 91200.632812 39156.632812
59745.746094 90996.476562 39039.734375
59713.156250 91104.437500 39381.355469
59686.652344 90862.468750 50666.718750
59546.886719 91094.148438 50471.488281
59825.035156 90859.507812 50437.144531
59449.089844 90780.039062 51120.746094
39549.808594 30728.343750 65345.714844
39426.136719 30498.521484 65639.031250
59963.511719 90913.843750 39290.148438
59691.019531 91197.296875 39689.617188
59926.156250 91015.812500 39616.082031
59876.332031 91124.234375 39922.171875
60036.191406 91180.390625 49344.328125
60081.789062 90970.820312 49691.933594
59829.812500 91231.625000 49701.980469
59947.453125 90861.007812 50204.039062
59605.554688 91272.937500 50045.742188
59898.679688 91024.203125 49981.886719
59766.582031 91029.007812 50232.140625
60580.144531 90705.703125 40241.460938
60296.265625 90896.843750 40221.605469
60405.636719 90770.156250 39990.746094
60418.246094 90883.406250 40529.113281
60036.671875 91078.000000 40204.785156
60181.531250 91035.000000 40458.164062
60395.089844 91047.515625 41103.074219
60640.367188 90879.000000 41138.492188
60729.820312 90887.296875 41400.234375
60529.785156 91011.351562 41328.343750
60336.359375 91161.265625 48614.917969
60242.824219 90909.531250 49441.781250
60708.785156 91141.109375 42202.734375
60866.328125 91075.351562 42362.570312
60663.632812 91261.445312 42497.292969
60921.855469 90945.203125 42065.031250
60912.269531 91113.437500 42604.828125
60799.929688 91277.375000 42903.003906
61023.074219 91176.148438 46592.273438
61123.601563 90988.945312 46875.886719
60897.398438 91210.695312 46891.820312
60773.722656 91261.937500 47118.402344
60956.382812 91042.351562 47206.230469
60720.535156 91220.296875 47392.609375
60420.230469 91175.968750 48346.234375
60527.582031 91177.523438 48044.535156
60633.066406 90976.945312 48249.960938
60627.675781 91194.523438 47722.410156
60860.390625 90997.437500 47585.781250
60749.492188 90978.890625 47929.500000
61527.878906 90844.671875 43370.152344
61632.683594 90685.617188 43027.367188
61416.824219 90995.218750 43716.394531
61293.878906 91029.265625 43379.738281
61717.769531 90789.171875 43990.359375
61433.035156 91041.945312 44144.179688
61657.609375 90873.976562 44381.683594
61438.015625 91066.273438 44478.968750
61597.250000 90934.007812 44776.261719
61680.300781 90840.921875 45177.914062
61393.562500 91096.500000 45132.949219
61203.398438 91189.281250 45792.894531
61454.019531 90921.484375 45987.554688
61158.308594 91142.953125 46221.054688
61306.214844 90914.187500 46547.320312
61190.882812 90825.804688 47136.058594
61677.460937 90774.734375 43633.363281
61880.226562 90679.773438 44296.648438
61860.476562 90707.218750 44608.558594
61800.199219 90691.507812 45526.109375
40921.636719 91376.023438 36687.703125
40717.359375 91256.101562 36456.722656
40930.128906 91359.343750 36372.511719
40805.957031 91332.554688 36982.316406
41052.515625 91464.085938 37005.269531
40885.121094 91390.507812 37298.062500
40839.371094 91378.648438 37600.363281
40374.339844 91123.890625 38704.152344
40682.703125 91312.710938 38740.039062
40501.730469 91202.937500 38973.742188
40733.734375 91349.703125 39078.539062
40718.609375 91346.140625 39406.984375
40707.957031 91343.078125 39688.136719
40868.972656 91449.476562 39899.785156
40823.480469 91406.851562 41031.242188
40740.945312 91274.601562 42505.351562
40971.562500 91431.226562 42226.144531
41086.156250 91434.109375 42974.183594
40832.585938 91301.265625 42872.285156
41098.550781 91470.656250 42627.234375
40636.246094 91177.445312 43092.167969
40918.042969 91321.109375 43254.152344
40585.746094 91200.375000 46824.992188
40832.308594 91310.734375 47040.210938
40812.363281 91313.976562 47376.636719
40986.492188 91397.132812 47678.246094
41138.433594 91441.375000 47245.878906
40779.433594 91318.343750 47943.484375
40997.074219 91414.265625 48055.480469
40771.750000 91319.718750 48189.109375
40934.785156 91391.632812 48379.691406
40846.390625 91349.984375 48666.453125
40953.695312 91386.695312 48982.492188
41157.359375 91425.257812 49649.628906
40958.214844 91368.101562 49333.363281
40929.023438 91200.429688 34910.625000
40758.601562 91153.210938 35150.070312
40998.949219 91280.992188 35239.746094
41036.496094 91335.515625 35534.328125
41063.285156 91405.460938 36117.089844
41179.781250 91514.562500 36770.304688
41078.445312 91508.914062 37574.437500
41212.128906 91595.726562 37869.890625
40932.628906 91440.000000 37851.144531
41036.140625 91509.242188 38153.425781
40870.753906 91421.187500 38446.601562
41392.996094 91745.437500 38955.609375
41047.199219 91535.992188 38829.976562
41196.652344 91638.203125 39150.785156
40966.257812 91499.851562 39248.722656
41384.281250 91763.703125 39557.355469
41183.761719 91646.648438 39799.554688
41176.675781 91635.257812 39436.050781
41345.984375 91746.781250 40613.972656
41089.750000 91583.523438 40814.761719
41372.148438 91751.523438 40974.476562
41430.398438 91765.898438 41345.632812
41126.660156 91592.046875 41198.457031
41226.328125 91600.359375 41980.390625
41559.355469 91771.343750 42167.000000
41263.835938 91592.562500 42319.261719
41491.394531 91772.210938 41739.019531
41477.855469 91684.250000 42586.277344
40868.476562 91271.171875 43661.566406
41163.921875 91430.398438 43544.191406
38880.871094 31248.134766 66052.570312
41026.824219 91322.476562 44671.531250
41316.906250 91460.984375 44468.218750
41307.980469 91448.828125 44882.691406
41344.621094 91463.359375 45325.960938
40992.906250 91319.531250 45540.167969
41029.339844 91347.710938 45944.785156
38615.914062 30901.570312 66620.062500
40868.425781 91312.640625 46690.882812
41078.902344 91404.171875 46887.707031
41301.906250 91519.914062 47560.582031
41272.351562 91521.546875 47885.003906
41167.839844 91488.875000 48646.074219
41516.621094 91630.851562 48454.199219
41495.667969 91619.468750 48857.597656
41279.179688 91514.109375 49211.105469
41532.171875 91593.906250 49534.792969
41498.507812 91534.531250 49932.902344
41419.363281 91440.460938 50312.265625
41370.558594 91344.984375 50666.250000
41619.679688 91365.968750 50961.203125
41181.175781 91277.617188 34645.972656
41520.199219 91462.359375 34783.148438
41771.988281 91527.500000 34470.929688
41814.921875 91602.382812 34786.636719
41603.679688 91584.773438 35344.847656
41475.027344 91492.171875 35112.542969
41726.109375 91601.789062 35053.000000
41442.691406 91532.695312 44162.621094
41643.574219 91614.828125 44381.300781
41562.203125 91564.820312 44696.328125
41903.621094 91711.648438 44705.429688
41634.984375 91587.140625 45024.226562
41728.335938 91618.500000 45372.703125
41544.558594 91546.492188 45667.542969
41676.652344 91600.796875 45987.523438
41364.433594 91481.687500 45956.476562
41490.425781 91536.289062 46206.035156
41749.378906 91634.429688 46337.621094
41463.988281 91535.500000 46505.242188
41228.800781 91437.750000 46250.738281
41544.128906 91599.656250 47310.339844
41403.421875 91528.367188 46901.546875
41553.414062 91623.210938 47705.269531
41837.222656 91735.671875 47878.343750
41543.882812 91633.968750 48071.687500
41836.437500 91750.023438 48261.308594
41664.117188 91673.000000 49195.207031
41740.953125 91657.765625 49742.980469
41815.058594 91652.765625 50000.125000
41924.800781 91644.914062 50285.324219
41670.089844 91559.820312 50218.863281
41704.335938 91502.960938 50554.953125
41896.476562 91507.093750 50832.464844
41999.476562 91226.250000 32792.039062
42277.664062 91310.789062 32695.904297
42151.273438 91379.492188 33102.101562
41818.824219 91312.257812 33393.027344
42130.507812 91494.867188 33570.000000
41807.093750 91412.242188 33829.488281
42119.585938 91586.453125 33978.679688
41885.820312 91520.679688 34159.101562
42085.085938 91647.289062 34349.792969
42066.117188 91739.375000 50048.003906
42263.921875 91764.257812 50295.050781
42408.734375 91720.851562 50688.781250
42051.960938 91624.976562 50590.058594
42143.871094 91581.648438 50877.675781
42407.003906 91594.101562 51106.707031
42614.750000 91537.109375 51444.085937
42367.156250 91225.898438 32344.669922
42750.304688 91337.898438 32248.496094
42562.277344 91378.734375 32556.296875
42593.695312 91504.046875 32908.238281
42866.683594 91505.906250 32586.128906
42478.589844 91585.359375 33351.503906
42556.316406 91841.695312 50409.398438
42811.285156 91865.632812 50629.195312
43005.140625 91821.703125 50956.976562
42678.125000 91741.359375 50914.238281
42806.074219 91684.039062 51192.382812
42823.843750 91485.554688 51714.945312
42679.261719 91309.648438 52037.761719
42789.628906 91195.445312 31857.322266
43147.238281 91391.953125 32017.587891
43065.382812 91493.257812 32344.595703
43329.554688 91562.234375 32278.890625
43247.019531 91644.031250 32583.427734
43020.488281 91657.031250 32871.039062
43221.308594 91596.281250 51682.625000
42936.843750 91618.328125 51460.714844
43242.953125 91766.515625 51279.406250
43025.468750 91437.234375 51945.503906
43054.828125 91299.570312 52273.621094
43710.859375 91351.328125 31481.386719
43446.882812 91371.703125 31722.912109
43401.777344 91204.460938 31389.099609
43679.496094 91188.109375 31161.677734
43363.695312 91039.101562 31062.798828
43538.656250 91540.117188 32044.552734
43646.339844 91711.710938 32397.384766
43357.742188 91474.937500 52034.937500
43748.015625 91508.359375 52148.917969
44021.117188 91351.179688 31274.095703
43959.558594 91471.898438 31566.281250
43888.453125 91664.812500 32070.126953
43768.933594 91505.296875 31778.652344
44080.832031 91608.812500 31791.169922
43632.125000 91628.929688 51821.714844
44019.375000 91660.039062 51928.382812
44139.382812 91537.054688 52254.367188
44272.367188 91425.781250 52569.265625
44536.761719 91262.390625 30797.318359
44854.175781 91384.562500 30867.513672
44593.562500 91428.796875 31092.304688
44612.492188 91601.531250 31441.802734
44235.617188 91530.992188 31514.917969
44346.429688 91444.531250 31264.308594
44279.320312 91298.492188 31010.679688
44397.335938 91681.718750 52030.667969
44755.351562 91694.109375 52126.828125
44514.371094 91560.718750 52344.871094
44385.832031 91321.570312 52875.468750
44628.406250 91449.726562 52650.042969
44934.480469 91561.171875 31179.271484
45101.902344 91703.804688 52209.542969
45200.039062 91586.757812 52506.066406
44864.652344 91575.773438 52429.292969
44965.355469 91469.257812 52719.242188
45088.707031 91378.148438 52997.066406
45224.730469 91284.796875 53302.511719
45487.332031 91719.710938 52276.515625
45498.617188 91430.273438 52992.500000
45254.699219 91486.703125 52768.058594
45520.304688 91576.109375 52623.734375
45850.714844 91268.484375 30203.580078
45631.710938 91337.867188 30420.306641
45545.894531 91167.507812 30146.558594
46040.761719 91180.710938 29967.427734
45763.074219 91123.710938 29976.054688
45418.875000 91418.562500 30662.988281
45756.917969 91505.492188 30681.630859
46140.507812 91575.531250 30662.988281
45899.566406 91675.156250 30959.070312
46128.851562 91655.039062 52575.765625
45859.375000 91554.382812 52767.171875
45831.335938 91682.328125 52444.734375
45623.234375 91305.695312 53379.031250
46211.113281 91380.914062 30267.724609
45916.894531 91415.828125 30446.306641
46524.183594 91690.835938 52558.281250
46674.234375 91550.062500 52939.000000
46251.335938 91549.875000 52869.125000
46384.187500 91413.429688 53271.582031
45937.308594 91427.992188 53124.777344
46017.359375 91310.281250 53485.265625
46381.078125 91230.015625 29923.722656
46633.535156 91410.281250 30162.162109
46517.058594 91570.382812 30508.990234
46939.292969 91661.601562 52675.222656
46846.183594 91432.648438 53283.914062
46639.089844 91320.859375 53592.562500
46319.398438 91295.648438 53608.628906
47022.613281 91328.210938 53608.164062
47569.890625 91568.976562 30159.527344
47090.050781 91545.476562 52984.292969
47259.800781 91430.750000 53307.359375
47406.589844 91318.820312 53636.757812
47536.003906 91384.242188 29811.712891
47428.359375 91178.640625 29452.968750
47337.308594 91688.914062 30465.525391
47726.613281 91750.367188 30487.496094
47935.828125 91476.656250 53119.152344
47655.671875 91405.492188 53358.046875
47536.730469 91546.281250 52977.199219
47773.914062 91295.164062 53676.000000
47853.632812 91017.601562 29002.115234
48283.914062 91614.781250 52703.644531
