1230
18567.414062 58642.191406 17175.250000
18609.109375 58812.867188 17430.005859
18783.966797 58835.042969 17858.005859
18714.212891 58697.203125 17678.806641
18721.966797 59016.097656 17676.281250
62851.976562 50735.917969 45546.695312
62703.125000 51051.843750 45383.386719
62795.671875 50751.683594 45176.968750
18857.546875 59036.832031 17943.296875
18872.337891 58800.457031 18059.050781
19051.894531 58905.386719 18471.517578
19092.773438 58804.976562 18723.771484
19182.484375 58635.242188 16168.529297
19118.070312 58726.484375 18947.724609
19257.517578 58670.285156 19571.935547
19314.312500 58917.218750 19579.664062
19405.951172 58762.093750 19793.576172
19236.783203 58879.480469 16127.924805
19489.472656 58628.386719 16162.542969
62677.187500 50734.597656 44413.199219
62743.000000 50753.804688 44822.578125
19466.246094 59021.394531 19790.152344
19633.037109 58845.082031 20011.126953
19756.060547 58485.257812 16220.841797
20163.953125 58629.031250 16313.662109
19862.277344 59028.050781 20155.542969
19871.779297 58774.359375 20170.912109
20098.488281 58883.464844 20256.093750
20379.515625 58513.062500 16425.322266
20377.140625 58806.769531 16399.134766
20325.123047 59016.429688 20321.927734
20651.728516 58781.964844 20268.849609
20576.888672 58661.851562 16543.416016
20587.304688 58904.484375 16517.957031
20846.371094 58930.246094 20290.892578
62501.527344 51121.847656 44418.796875
21161.949219 58789.105469 17130.628906
21087.796875 58800.929688 20233.570312
21253.171875 58578.441406 17275.322266
21301.435547 58900.312500 20249.513672
21337.080078 58656.445312 20197.552734
21608.636719 58723.328125 17513.550781
21442.941406 58549.132812 17436.535156
21822.310547 58613.089844 17673.738281
22045.357422 58735.625000 17754.066406
21570.345703 58840.312500 20249.257812
21804.763672 58917.828125 20294.496094
21835.984375 58698.605469 20271.689453
22014.896484 58849.253906 20348.044922
22227.187500 58596.804688 17891.740234
22248.738281 58760.660156 20460.673828
22179.773438 59021.089844 20440.316406
22382.849609 58927.023438 20550.181641
48128.773438 50863.691406 50722.437500
48475.078125 50704.542969 50730.917969
22294.121094 58859.683594 17792.099609
22468.035156 58683.667969 17947.085938
54510.117188 28304.601562 26025.066406
54784.949219 28414.183594 26215.246094
54899.808594 28473.154297 25899.462891
22557.023438 59012.128906 20689.062500
63815.175781 50649.191406 50356.722656
63849.449219 50657.593750 50593.648438
22716.646484 58874.871094 20874.382812
22828.898438 58946.765625 17868.910156
22720.285156 58744.109375 17988.949219
22974.539062 58801.480469 18016.087891
63648.136719 50614.109375 49303.996094
63667.324219 50353.644531 49233.484375
22958.888672 58899.089844 21291.541016
22923.892578 58641.800781 21348.501953
22883.882812 58590.820312 18132.980469
23184.244141 58645.351562 18185.726562
23056.869141 59020.855469 21491.072266
23010.900391 58803.007813 21501.761719
23077.435547 58873.109375 21707.566406
23145.234375 58894.925781 22369.220703
23134.357422 58824.703125 22654.351562
23107.263672 58612.296875 22824.503906
23170.253906 58923.804688 22927.775391
23426.404297 58793.058594 18146.593750
23433.361328 58606.414063 18292.732422
23630.115234 58702.300781 18286.935547
23211.126953 58931.914063 23300.611328
23259.142578 59103.449219 23525.626953
23396.650391 58825.207031 23882.761719
63618.437500 50887.250000 49338.464844
22877.119141 60598.222656 47566.527344
22861.380859 60847.914062 47696.710938
23061.050781 60676.019531 47780.964844
23880.980469 58827.667969 18289.671875
23650.240234 58907.753906 18125.691406
23617.990234 58875.476562 24273.863281
23523.382812 58769.136719 24086.707031
23931.316406 58876.152344 24682.730469
24412.105469 58717.343750 18787.019531
24236.621094 58640.074219 18688.095703
24047.169922 58674.015625 18520.033203
54753.343750 37645.507812 18994.765625
54571.066406 37944.488281 19115.623047
54565.953125 37821.953125 18839.179688
24834.054688 58762.480469 19341.744141
24872.886719 58972.226562 19175.708984
24736.888672 58786.308594 19157.414062
63558.730469 50222.605469 48437.582031
63615.414062 49971.593750 48551.386719
63587.550781 50280.355469 48680.023438
63493.535156 50718.800781 48568.519531
63515.781250 50500.312500 48468.550781
63555.308594 50623.691406 48804.488281
24785.009766 58524.261719 19512.167969
54408.175781 28520.818359 31838.091797
54148.089844 28428.132812 31949.720703
54436.343750 28570.361328 32181.750000
63448.714844 50399.703125 47989.117188
63510.777344 50308.253906 48230.398438
63461.179688 50539.582031 48210.738281
25176.585938 58599.199219 19974.183594
24802.945312 58960.859375 25724.853516
25000.166016 58787.617187 25753.970703
24844.322266 58714.960937 25499.796875
25409.585938 58622.921875 20193.625000
63306.429688 50288.300781 47162.437500
63377.589844 50256.199219 47459.011719
63274.437500 50531.402344 47349.781250
25646.623047 58839.578125 20250.212891
26117.412109 58786.960938 20586.875000
26375.638672 58718.816406 20753.654297
26525.582031 58976.550781 20648.656250
26677.982422 58844.902344 20811.601562
27048.164062 58680.906250 21073.496094
27090.939453 58897.093750 20978.912109
26876.050781 58770.226562 20947.193359
26901.560547 58969.714844 20837.033203
63145.968750 50797.742188 47217.144531
63228.105469 50799.031250 47530.761719
54577.433594 28573.947266 31554.035156
54651.984375 28633.757812 31907.462891
62980.257812 50446.867188 45736.605469
27763.695312 58762.664063 21610.669922
27906.671875 58844.824219 21809.283203
28157.583984 58807.308594 22163.837891
28035.732422 58691.210938 21959.710938
28279.583984 58656.625000 22273.896484
62857.468750 50509.769531 44979.601562
62940.941406 50393.699219 45318.156250
28425.437500 58616.507812 22502.890625
28573.058594 58785.898438 22966.955078
28482.097656 58789.390625 22748.394531
28757.398438 58747.121094 23514.003906
28668.378906 58770.738281 23229.144531
28562.398438 58961.734375 23428.933594
28371.035156 59155.351563 23354.240234
28484.412109 58986.402344 23156.333984
62830.148438 50455.324219 44672.601562
62808.078125 50382.835938 44382.777344
61872.234375 50787.500000 54109.589844
62169.144531 50762.617188 54220.726562
62025.093750 50598.773438 53975.089844
60058.769531 50866.628906 53200.152344
60030.050781 50670.832031 53047.074219
60027.851562 50461.417969 52906.703125
59844.160156 50382.011719 52743.167969
59810.886719 50623.878906 52873.574219
28845.375000 58710.554687 23845.408203
28625.939453 58937.507812 23720.451172
28847.263672 58744.511719 24189.335938
28661.296875 58929.027344 24035.109375
28984.007812 58584.898438 24056.962891
28862.216797 58732.132812 24547.628906
28667.070312 58934.527344 24363.697266
29071.976562 58498.078125 24615.445312
28883.013672 58674.054687 25543.556641
28734.847656 58842.273438 25420.515625
28873.339844 58694.316406 25805.380859
28750.289063 58831.496094 25659.179688
18614.503906 58867.667969 16475.828125
18541.910156 59083.468750 16625.306641
18487.894531 59029.917969 16905.423828
18514.982422 58931.406250 17171.894531
18766.251953 58679.851563 16362.158203
18768.158203 58911.347656 16289.149414
55920.917969 50624.867188 51063.148438
56086.308594 50388.890625 51102.449219
55699.550781 50654.851562 51131.148438
54263.250000 50277.695312 56112.175781
54360.660156 50501.035156 55955.367188
18991.728516 59038.667969 18198.587891
18954.933594 59112.773438 16213.057617
18963.957031 58784.214844 16200.121094
54237.898437 50307.339844 56093.949219
54229.121094 50344.660156 56070.351562
19149.386719 59051.566406 18638.216797
19207.242188 59043.636719 18928.269531
19273.949219 59051.511719 19303.677734
19529.548828 58919.328125 16122.697266
19392.970703 59169.804688 19563.833984
20245.564453 59060.269531 16312.488281
19997.435547 59068.796875 16214.538086
20143.720703 58863.265625 16281.763672
20439.818359 59044.593750 16411.197266
20450.753906 59275.574219 20386.923828
48899.570312 50536.894531 50744.937500
49156.933594 50429.664062 50766.765625
48882.074219 50297.109375 50763.117188
20746.220703 58999.000000 16625.619141
20583.960938 59150.218750 16488.746094
20802.865234 59221.250000 20385.433594
21108.873047 59085.820313 20314.574219
49079.839844 50154.921875 50792.535156
54453.906250 28498.826172 30869.648438
54816.425781 28643.566406 30833.025391
54648.277344 28569.041016 30545.531250
21405.292969 59094.917969 20300.328125
21379.486328 58789.300781 17330.361328
21668.781250 59100.628906 20311.878906
48754.066406 50678.039062 50735.039062
48672.941406 50471.230469 50741.437500
21564.283203 58973.226562 17394.033203
21837.607422 58896.992187 17583.984375
21755.212891 59142.031250 17413.380859
64059.460938 50141.968750 53185.902344
63857.265625 49942.488281 53054.062500
63905.402344 50009.207031 53330.246094
22080.121094 58940.132812 17677.789062
21928.103516 59092.593750 20358.597656
22100.857422 59328.230469 20460.314453
22367.429688 59170.769531 20556.314453
22729.998047 59146.816406 20858.875000
30288.542969 43106.523438 17131.154297
30344.177734 43415.238281 17104.404297
30159.621094 43324.488281 17304.144531
22699.773438 59093.339844 17719.509766
22864.658203 59018.445312 21063.960938
23049.175781 58981.585937 17891.267578
63841.234375 50215.371094 50292.929688
63885.777344 50181.734375 50612.871094
63846.269531 50437.988281 50455.031250
22991.863281 59153.687500 21264.265625
23142.125000 59130.066406 21708.218750
23142.839844 58978.898438 21929.796875
23326.851562 59304.042969 17653.427734
23262.142578 59099.414062 17841.087891
23458.394531 59005.585937 17980.582031
23219.144531 58890.828125 18009.150391
23005.148438 59159.214844 17714.789062
23215.986328 59157.765625 23096.060547
23244.130859 59248.726562 23322.117188
23285.712891 59345.648437 23571.695312
23336.621094 59130.039062 23797.839844
23338.501953 59455.617188 23819.332031
23849.367188 59032.253906 18094.056641
23545.634766 59166.250000 24289.689453
23462.994141 59010.617188 24072.085938
63627.527344 50319.960938 48964.613281
63684.667969 50084.562500 49134.753906
23721.027344 59025.187500 24499.972656
24035.056641 59162.644531 18068.687500
24028.156250 59000.054688 18208.166016
24201.113281 59102.273438 18226.630859
23628.130859 59331.582031 24516.371094
23833.011719 59200.976562 24766.076172
24427.646484 58962.246094 25313.406250
24203.742188 59135.375000 25208.447266
24406.669922 59165.242187 25480.966797
54200.847656 28390.500000 30208.376953
54333.015625 28447.097656 30522.458984
54517.191406 28512.984375 30241.468750
63356.492188 50527.203125 47701.679688
24630.994141 59099.093750 18669.201172
24594.371094 58915.406250 18809.523438
24612.835938 58953.921875 25506.419922
63293.316406 50820.070312 47805.246094
24910.228516 59178.640625 19007.886719
24998.458984 59143.820312 19200.095703
24601.371094 59171.968750 25716.527344
24616.029297 59412.847656 25974.669922
24779.919922 59153.792969 25909.541016
24975.593750 58984.132812 25954.453125
25225.943359 58943.050781 19756.322266
25517.804688 58933.734375 20073.064453
25725.316406 59031.035156 20172.791016
25656.332031 59174.644531 20001.544922
26116.113281 59170.222656 20305.447266
26731.406250 59019.113281 20717.144531
63447.902344 50201.007812 47753.113281
63108.441406 50334.304688 46304.230469
63204.390625 49990.933594 46233.351562
63244.187500 50101.097656 46624.984375
26898.644531 59174.453125 20702.277344
63177.546875 49892.804688 45885.156250
63092.746094 50211.132812 45971.960938
63068.828125 50122.367188 45619.144531
27125.259766 59126.953125 20879.486328
27650.330078 59210.406250 21412.347656
27506.830078 59202.941406 21198.402344
27776.857422 59174.070312 21654.835938
27889.849609 59095.535156 21858.501953
27816.607422 58972.304688 21677.775391
28016.593750 58963.902344 22024.113281
28105.533203 59063.796875 22262.939453
28343.419922 58938.441406 22634.388672
28260.732422 58877.953125 22388.382812
28179.058594 59127.207031 22515.630859
63059.164062 49994.855469 45254.156250
28274.964844 59202.957031 23082.830078
28408.728516 58988.734375 22892.000000
28234.789062 59168.917969 22780.476562
54777.828125 28615.392578 30294.218750
54738.964844 28595.552734 30008.998047
62865.894531 50114.566406 44189.640625
62910.777344 50155.410156 44536.054688
62733.687500 50445.410156 44112.734375
61784.292969 50303.093750 53582.035156
61773.687500 50104.789062 53395.699219
61587.843750 50229.417969 53446.082031
28465.195312 59118.011719 23907.851562
28645.189453 58954.343750 24687.695312
28792.353516 58796.652344 24870.693359
28607.052734 58986.542969 24988.695312
28455.755859 59148.195312 24823.490234
28753.119141 58826.500000 25149.421875
28577.951172 59016.703125 25276.410156
28430.173828 59176.769531 25104.761719
28705.431641 58915.710938 25928.132812
28570.429688 59044.078125 25604.804688
18681.695312 59116.632812 16385.195312
18618.607422 59300.828125 16533.646484
18706.343750 59604.824219 16879.248047
18604.414062 59456.750000 17060.935547
18561.345703 59332.332031 16809.255859
18533.419922 59220.597656 17112.195312
18644.988281 59400.585938 17303.195312
18600.238281 59121.281250 17386.355469
61530.550781 50084.300781 53301.722656
61278.976562 50069.214844 53207.597656
61377.621094 50244.777344 53387.281250
18739.970703 59322.207031 17565.865234
18783.777344 59368.761719 16371.195312
19049.976562 59454.457031 16274.212891
58182.789062 50502.433594 51558.097656
58146.542969 50809.609375 51626.179687
58318.164062 50711.105469 51726.359375
53334.871094 50406.261719 55902.128906
53050.394531 50367.054688 55801.929688
52703.187500 49835.457031 55979.378906
18860.796875 59265.789063 17812.087891
18915.830078 59498.632812 17695.632812
19133.335938 59355.503906 18161.140625
18967.919922 59233.621094 18013.968750
19344.013672 59216.996094 16146.102539
54389.222656 28453.314453 29870.060547
19304.330078 59539.351562 18181.330078
19298.271484 59435.941406 18376.199219
19146.054688 59186.210938 18416.347656
19284.283203 59304.484375 18664.265625
19342.496094 59300.453125 19097.066406
19309.523438 59295.449219 18886.375000
63798.156250 50234.804688 50002.535156
63836.968750 50020.117188 50134.187500
63876.507812 49942.882812 50381.980469
19383.078125 59595.015625 16269.777344
19600.412109 59380.292969 16160.183594
19703.625000 59117.019531 16142.677734
19441.582031 59497.082031 18886.701172
19508.515625 59543.304687 19248.994141
63560.460938 49873.121094 48047.503906
63612.035156 49779.632812 48301.386719
63561.003906 50048.445312 48262.121094
19388.742188 59308.343750 19355.203125
19506.787109 59416.308594 19560.361328
19682.509766 59468.835938 19847.228516
19654.195312 59159.523438 19963.837891
19521.660156 59255.804687 19756.642578
20026.958984 59547.968750 16279.457031
19838.349609 59756.964844 16316.041016
19718.910156 59585.101562 16232.217773
19869.400391 59583.250000 20050.796875
19860.341797 59326.753906 20113.750000
20040.419922 59506.238281 20236.388672
20122.105469 59207.554688 20284.925781
20102.343750 59268.667969 16253.929688
20241.437500 59447.433594 20359.511719
20329.880859 59312.914062 16357.675781
20406.173828 59580.054688 20435.464844
20759.205078 59236.488281 16593.519531
20905.488281 59457.066406 20468.134766
21048.861328 59323.406250 20404.822266
63507.996094 50132.601562 48016.855469
20886.437500 59083.082031 16732.074219
21224.371094 59303.601562 16925.498047
21051.150391 59019.164062 16919.820312
21270.714844 59310.691406 20376.451172
20959.275391 59320.406250 16722.589844
21326.402344 59062.457031 17161.593750
21400.460938 59492.214844 20431.919922
21523.521484 59313.207031 20362.113281
21712.824219 59344.007812 17233.873047
21690.978516 59529.277344 17049.310547
63466.843750 49927.648438 47526.062500
21629.195312 59539.039062 20436.927734
21789.628906 59327.867188 20384.339844
63373.406250 49779.074219 46823.441406
63431.109375 49808.703125 47171.140625
63333.214844 50056.218750 46988.222656
63196.121094 50536.835938 47030.308594
63242.898438 50297.371094 46892.281250
21934.603516 59311.093750 17363.806641
21995.119141 59110.875000 17539.017578
22159.263672 59278.441406 17454.310547
21894.982422 59570.117188 20462.548828
22353.326172 59466.058594 17298.027344
22105.001953 59448.121094 17285.761719
22148.625000 59639.546875 20539.271484
22367.048828 59453.000000 20592.126953
22563.095703 59286.382813 20697.636719
22562.263672 59526.359375 20718.765625
63318.972656 49741.632812 46472.472656
22799.593750 59282.875000 17543.908203
22880.712891 59557.515625 21021.648438
22880.851562 59285.886719 21043.085938
22729.039062 59417.992188 20852.904297
23026.664062 59439.203125 21248.226562
23107.056641 59399.019531 17467.656250
63282.175781 49667.722656 46132.609375
23103.386719 59268.167969 21474.882812
23197.595703 59388.593750 21682.136719
23269.744141 59508.042969 21859.855469
23219.148438 59256.203125 21960.798828
54391.144531 28436.146484 29427.759766
54726.429688 28583.246094 29638.888672
54769.343750 28590.351562 29194.986328
23238.644531 59248.691406 22308.041016
23302.416016 59505.082031 22101.925781
23326.089844 59566.382812 22376.527344
63070.015625 49821.414062 44933.761719
63155.101562 49648.902344 45204.113281
63003.667969 49929.132812 44680.085938
62955.757812 50181.765625 44909.273438
23340.429688 59659.066406 22643.562500
23287.789062 59489.734375 22815.064453
23270.746094 59385.343750 22600.298828
23196.087891 59087.558594 22617.869141
23230.519531 59248.328125 22853.949219
23269.679688 59441.332031 23075.863281
23287.011719 59519.648437 23358.617188
23316.605469 59619.093750 23597.207031
23352.972656 59733.628906 23826.216797
23415.437500 59303.785156 24057.671875
23485.167969 59462.621094 24284.902344
23735.244141 59567.152344 17539.105469
23448.523438 59508.683594 17458.001953
23577.511719 59407.980469 17637.548828
23557.048828 59225.019531 17815.830078
23666.619141 59083.640625 17979.929688
23829.123047 59218.937500 17924.820312
62340.968750 50105.433594 53582.117188
62254.757812 49926.785156 53373.066406
24216.025391 59272.960938 18086.679688
23990.160156 59235.792969 25016.136719
23850.195312 59458.367188 24967.187500
23690.634766 59520.832031 24732.666016
40451.390625 30558.347656 31005.462891
40157.335938 30657.833984 31226.226562
40580.582031 30567.873047 31339.408203
61460.492187 49898.464844 53127.679687
24389.353516 59263.031250 18243.398438
61725.910156 49927.992188 53228.378906
24395.896484 59401.027344 25687.666016
24753.978516 59278.410156 18656.560547
24778.341797 59153.515625 18819.140625
54380.660156 28412.265625 29035.214844
60535.363281 49866.976562 52774.320312
60419.847656 50121.746094 52891.667969
60652.761719 50037.632812 52941.871094
25605.279297 59330.140625 19811.791016
25417.507812 59101.527344 19829.707031
25909.011719 59235.265625 20134.615234
26169.074219 59386.730469 20158.650391
26328.365234 59254.031250 20342.882812
26412.537109 59484.175781 20199.035156
26463.591797 59140.515625 20495.414062
26558.972656 59327.933594 20393.267578
60058.234375 49731.964844 52478.800781
59864.164062 49949.843750 52499.000000
60104.355469 49955.960938 52628.414062
60171.113281 50133.914062 52773.125000
60304.281250 49971.328125 52736.382813
26665.343750 59164.546875 20575.710938
27333.029297 59016.421875 21082.552734
59609.917969 49919.945312 52339.839844
59338.511719 49856.753906 52142.507812
59394.042969 50143.839844 52319.980469
55600.851562 50026.316406 52612.964844
55561.675781 50026.136719 52368.773438
27952.775391 59224.269531 22107.939453
27817.998047 59350.199219 21898.468750
28010.509766 59302.640625 22380.472656
28087.800781 59360.906250 22914.740234
28060.605469 59335.203125 22647.906250
27913.578125 59505.593750 22771.906250
27890.314453 59493.984375 22514.984375
27918.738281 59526.039062 23031.398438
28084.384766 59400.625000 23176.193359
28426.820312 59132.378906 23620.820312
28243.312500 59299.675781 23532.080078
28137.919922 59472.449219 24520.884766
28299.179687 59311.183594 24668.367188
28133.501953 59495.511719 24807.505859
28286.402344 59332.507812 24951.646484
28137.318359 59515.351562 25102.255859
28284.781250 59346.472656 25193.593750
28199.808594 59478.667969 25426.123047
28398.453125 59227.800781 25378.490234
28362.345703 59307.566406 25660.464844
28322.187500 59415.718750 25923.599609
28217.085938 59509.722656 25719.933594
28306.841797 59294.550781 24374.277344
28482.830078 59115.457031 24212.152344
28477.662109 59126.238281 24522.447266
54309.796875 28357.847656 28670.437500
55607.957031 50041.121094 51846.101562
49657.859375 50126.140625 50858.914062
49725.148438 49825.011719 50959.964844
49444.878906 49878.242188 50891.968750
49157.535156 49916.136719 50843.707031
49252.722656 49648.546875 50923.152344
49334.101562 50148.988281 50817.093750
48850.671875 49983.667969 50804.089844
48968.742188 49690.484375 50871.847656
40829.195312 30467.822266 31044.396484
40950.835938 30479.931641 31415.085938
63807.613281 49969.429688 49886.414062
63824.929688 49692.937500 49777.656250
63864.167969 49736.636719 50116.429688
19085.232422 59713.316406 16449.189453
19115.048828 59877.964844 16714.673828
18875.117188 59718.574219 16662.011719
63740.511719 49858.207031 49320.695312
63790.125000 49679.265625 49509.679688
63771.746094 49924.593750 49599.308594
18945.162109 59813.964844 16993.898438
18972.687500 59765.671875 17339.382812
18752.722656 59625.765625 17179.146484
18816.775391 59566.906250 17454.843750
19002.728516 59680.023437 17576.074219
63777.027344 49526.421875 49248.164062
63708.390625 49797.746094 49032.109375
46555.085938 43814.332031 20464.351562
46465.535156 43630.898438 20218.779297
46723.023438 43598.929688 20314.748047
19121.763672 59642.121094 17776.687500
63609.187500 49639.074219 48091.156250
63651.773438 49365.523438 48009.375000
63662.347656 49496.929688 48306.078125
19343.140625 59749.058594 17852.673828
19222.939453 59574.914062 18000.375000
63668.710938 49645.089844 48561.777344
63481.667969 49490.726562 47014.839844
63539.636719 49518.355469 47414.957031
19348.117188 59858.460938 16508.294922
63386.011719 50067.488281 47260.785156
19704.667969 59748.953125 18618.103516
19758.207031 59810.457031 18852.169922
19597.197266 59675.324219 18780.720703
19485.880859 59577.222656 18565.402344
19623.056641 59709.925781 19016.931641
19698.955078 59794.003906 19283.025391
19653.222656 59667.949219 19553.085938
63381.597656 49438.109375 46344.472656
63427.492188 49469.390625 46665.671875
54339.984375 28346.134766 28299.513672
20170.462891 59930.328125 16477.666016
20193.177734 59692.695312 20325.716797
20290.464844 59674.367188 16398.576172
20566.623047 59659.656250 16482.808594
20550.726562 59419.570312 16461.628906
20553.431641 59774.585938 20510.005859
20663.578125 59497.125000 20472.777344
20742.208984 59454.875000 16554.458984
20849.580078 59724.750000 20560.148438
63260.074219 49568.136719 45802.468750
21151.738281 59556.246094 20486.810547
63150.128906 49541.964844 44926.320312
22180.990234 59646.089844 17098.798828
21929.263672 59502.207031 17177.861328
63087.796875 49623.507812 44633.187500
62982.062500 49863.187500 44399.429688
43082.496094 44967.277344 18639.929688
42958.574219 45003.058594 18456.976562
43112.804688 44852.332031 18410.425781
21959.255859 59780.156250 20531.222656
22408.228516 59755.210938 20674.414062
62092.312500 49600.804688 53042.132812
62172.730469 49765.175781 53201.898437
62302.914062 49606.335938 53087.617187
22692.164062 59722.195312 20846.791016
61985.882812 49939.656250 53310.593750
22830.988281 59469.464844 17331.683594
22612.890625 59545.429687 17230.314453
23038.080078 59543.210938 17268.996094
23002.535156 59674.496094 21164.511719
23150.742188 59703.679688 17146.392578
61175.121094 49653.867188 52856.687500
60988.527344 49715.414062 52842.894531
61163.839844 49856.839844 53003.003906
23115.789062 59675.996094 21348.652344
23146.884766 59489.367188 21471.517578
23243.345703 59700.050781 21632.824219
61030.683594 49529.250000 52726.804688
61317.398438 49461.832031 52757.937500
23334.164062 59711.945312 21935.158203
23374.074219 59751.632812 22181.912109
23336.277344 59702.289062 22913.062500
23326.695312 59717.550781 23182.556641
23327.615234 59744.257812 23408.570312
23363.314453 59908.429687 23601.666016
23376.269531 59950.078125 23845.761719
23391.906250 59857.660156 24038.421875
23393.332031 59595.394531 24051.693359
23409.853516 60088.726563 23998.013672
23549.679688 59629.511719 24500.460938
23507.337891 59915.250000 24472.341797
23605.986328 59798.097656 24701.839844
59595.175781 49649.636719 52196.792969
23982.287109 59593.746094 17651.525391
54385.320313 28346.363281 28015.843750
23795.570312 59404.933594 17739.185547
24064.480469 59390.246094 17891.044922
24036.119141 59641.968750 25388.994141
24022.175781 59418.542969 25197.250000
23873.994141 59681.878906 25152.794922
24192.431641 59607.277344 17774.269531
55972.207031 49552.832031 53067.750000
55906.394531 49771.605469 53232.230469
54296.097656 28278.195312 27720.345703
24562.361328 59611.054687 18103.218750
24206.941406 59392.699219 25433.921875
24198.945312 59627.515625 25623.347656
24364.583984 59662.082031 25878.359375
25432.955078 59629.699219 19311.724609
24576.296875 59792.261719 17950.777344
25739.740234 59814.578125 19493.072266
25561.230469 59795.003906 19289.769531
25571.931641 59641.003906 19462.679688
63782.242188 49160.507812 48825.359375
63838.050781 49010.289062 49078.929688
63793.023438 49274.949219 49071.289062
25993.117188 59501.000000 19961.755859
26069.994141 59741.871094 19816.005859
26245.035156 59622.628906 20008.019531
26500.121094 59752.625000 20058.019531
63839.167969 49192.066406 49325.371094
54339.480469 28270.150391 27366.904297
26747.144531 59801.042969 20185.312500
26660.146484 59562.054687 20270.886719
26882.455078 59664.718750 20362.171875
27030.457031 59593.339844 20538.371094
27201.677734 59718.824219 20693.015625
27052.236328 59828.324219 20475.087891
27127.775391 59409.761719 20739.326172
27365.916016 59598.785156 20945.632812
45132.238281 45469.292969 21278.162109
45343.761719 45261.460938 21199.404297
45412.871094 45444.816406 21410.888672
27354.144531 59306.437500 21006.386719
63721.734375 49339.820312 48570.812500
63715.531250 49206.265625 48302.074219
27685.742188 59639.285156 21929.738281
27829.689453 59492.292969 22216.558594
27746.468750 59636.335937 22419.207031
27653.990234 59726.136719 22238.265625
27595.080078 59789.203125 22472.337891
27744.701172 59650.593750 22633.361328
27558.798828 59818.800781 22727.671875
27742.187500 59663.808594 22887.097656
27751.126953 59709.308594 23426.164062
27922.837891 59580.429688 23559.367188
27768.796875 59732.445312 23695.326172
63585.531250 49177.628906 47179.171875
63634.660156 49159.988281 47508.449219
28078.441406 59434.839844 23426.353516
27916.671875 59555.144531 23294.216797
27810.062500 59774.718750 24221.779297
27971.013672 59631.355469 24375.423828
27796.369141 59835.972656 24506.189453
27961.544922 59609.253906 24099.404297
28133.919922 59456.855469 24236.386719
27976.214844 59655.425781 24655.357422
27842.537109 59823.832031 24775.759766
27972.212891 59694.507812 24944.173828
27783.869141 59945.925781 25036.832031
27972.121094 59749.656250 25291.869141
28063.820312 59702.031250 25638.332031
28159.451172 59656.464844 25951.468750
63532.605469 49173.726562 46825.765625
63354.707031 49363.312500 46044.898438
19185.740234 59960.363281 16959.060547
19373.203125 59996.136719 16785.929688
19177.935547 59925.828125 17217.685547
19393.396484 60030.125000 17078.437500
19391.916016 59989.523438 17332.720703
19250.021484 59842.527344 17553.738281
63344.339844 49238.210938 45739.906250
19611.515625 59807.140625 16368.467773
19607.232422 60071.046875 17249.107422
19417.373047 59682.730469 18073.144531
19563.716797 59825.910156 17934.033203
19486.800781 59881.503906 17729.458984
63249.058594 49440.679688 45467.171875
63160.757812 49782.324219 45539.605469
63189.781250 49319.660156 44756.183594
63242.093750 49290.945312 45103.730469
19729.703125 59973.441406 17741.527344
63145.726562 49353.109375 44489.828125
19992.517578 60036.398438 17840.730469
20059.564453 59976.273438 18099.005859
19794.398438 59898.898438 18010.294922
19839.347656 59848.968750 18258.654297
19841.246094 59824.562500 18471.853516
19922.250000 59881.132813 18684.988281
19780.529297 59863.941406 19077.255859
19945.982422 59950.917969 18964.988281
19906.519531 59991.484375 19281.324219
19791.250000 59879.738281 19515.496094
19942.267578 60046.125000 19611.316406
19832.378906 59797.921875 19817.837891
20013.302734 60045.054688 19921.626953
63094.261719 49274.527344 43987.339844
63148.769531 49237.753906 44280.269531
63056.789062 49541.859375 44252.445312
20120.474609 59949.789062 18431.916016
61974.617187 49432.550781 52881.160156
62276.320312 49414.214844 52916.980469
62118.207031 49223.542969 52742.183594
20185.109375 60020.660156 18797.701172
61867.820312 49609.550781 53001.574219
61830.855469 49254.664062 52720.019531
20177.587891 60012.996094 20224.994141
20004.582031 59781.175781 20119.933594
20406.042969 59926.535156 16531.320312
20195.695312 60096.535156 16655.570312
20341.453125 59832.605469 20415.367188
20675.693359 59830.515625 16543.541016
20663.656250 59950.988281 20586.087891
20660.015625 60159.597656 20616.224609
56131.402344 49220.507812 53486.468750
56034.886719 49502.199219 53358.117188
21147.292969 59884.097656 20620.265625
21424.257812 60051.796875 20665.261719
21446.236328 59745.761719 20534.542969
21897.113281 59690.660156 16998.761719
21638.738281 59942.910156 20598.089844
52026.457031 49268.562500 55829.039062
51842.183594 49133.750000 55687.093750
51948.218750 49346.738281 55649.234375
22075.511719 59849.425781 16911.738281
21871.482422 59968.542969 20600.703125
21739.396484 59764.433594 20515.957031
22132.816406 59908.750000 20616.185547
22590.527344 60004.175781 16912.585938
22333.726562 59850.062500 16951.460938
22557.517578 59952.183594 20791.261719
22344.445312 60058.085938 20731.101562
22559.822266 60186.328125 20859.138672
22743.173828 60023.484375 20927.394531
22893.863281 59830.664062 21035.802734
22830.869141 59711.050781 17106.781250
23348.285156 59822.832031 17101.138672
23050.875000 59894.746094 21222.748047
51263.394531 49417.386719 53222.863281
51212.296875 49307.933594 53431.062500
51141.925781 49220.132812 53205.890625
23172.322266 59894.839844 21414.160156
51373.046875 49570.972656 53393.308594
23497.349609 60010.910156 17046.976562
23274.599609 60042.835938 21585.976562
23385.972656 60218.046875 21789.093750
23356.021484 59941.421875 21824.636719
23434.259766 60114.109375 22012.314453
23397.132812 59898.808594 22032.076172
23435.421875 59996.718750 22224.140625
23397.986328 59841.957031 22435.800781
23389.875000 59939.566406 23037.371094
23444.041016 60167.777344 23161.632812
23376.642578 59948.277344 23309.597656
23433.218750 60199.226562 23465.591797
23409.986328 60144.660156 23758.783203
23451.529297 60229.917969 24154.830078
23439.664062 60013.507812 24228.896484
23608.480469 59827.078125 17205.195312
23571.703125 60064.175781 24688.109375
23651.568359 59935.230469 24866.607422
23728.873047 59720.394531 24919.777344
24151.554688 59799.839844 17572.044922
24080.900391 59987.777344 17368.751953
48845.929688 49154.820312 50989.625000
48766.132812 49467.562500 50898.824219
49059.695312 49414.820312 50955.847656
23750.701172 59935.792969 25071.595703
24170.117188 59872.433594 25773.451172
24053.917969 59822.949219 25557.515625
24006.841797 60055.316406 25630.082031
41370.847656 46404.011719 16175.807617
41200.316406 46522.117188 16289.350586
24359.470703 59780.144531 17750.707031
24843.789062 59982.875000 18095.193359
63890.261719 48896.753906 49337.972656
63943.656250 48766.382812 49585.578125
63896.207031 49055.714844 49596.558594
24798.431641 59616.285156 18391.876953
24926.275391 59619.867187 18566.689453
25122.757812 59766.558594 18717.312500
25480.132812 60149.460938 19023.800781
25563.283203 59972.042969 19206.707031
25309.548828 59972.847656 18824.376953
25700.177734 59965.003906 19355.357422
25923.849609 59857.425781 19631.183594
63772.542969 49036.699219 48545.453125
63762.976562 48951.894531 48300.382812
63813.921875 48751.117188 48454.914062
26640.654297 59966.515625 20048.744141
26915.636719 59885.769531 20303.208984
63722.816406 49040.253906 48067.351562
63787.285156 48722.988281 48119.136719
27179.195313 60013.328125 20647.791016
27603.236328 59714.957031 21611.033203
27538.158203 59866.988281 22072.593750
27556.240234 59854.605469 21837.412109
27416.507812 60026.847656 21932.847656
27454.035156 60006.183594 21642.910156
27376.384766 60026.835938 22193.822266
27504.158203 59887.882813 22298.099609
27159.802734 60177.433594 22719.822266
27356.279297 60003.449219 22860.257812
27360.753906 60004.523437 22506.658203
27554.462891 59834.546875 23017.154297
27358.375000 60038.343750 23198.845703
27572.550781 59848.773437 23298.255859
27448.652344 59991.472656 23450.363281
63678.875000 49116.300781 47797.070312
63737.671875 48867.312500 47872.500000
63710.371094 48877.457031 47623.437500
63643.875000 48824.417969 46969.730469
63676.738281 48880.765625 47330.066406
27743.283203 59683.789062 23155.531250
27597.896484 59868.722656 23566.279297
27627.654297 59888.656250 23827.925781
27446.939453 60053.187500 23713.474609
27792.787109 59750.937500 23960.718750
27525.691406 60022.921875 23953.775391
27657.359375 59907.890625 24077.193359
27519.669922 60092.464844 24192.179688
27677.669922 59929.871094 24296.005859
27686.882812 60011.558594 24737.232422
27589.394531 60200.148438 24951.013672
27796.523438 59991.839844 25328.201172
27653.007812 60179.570313 25232.662109
27884.126953 59936.687500 25572.324219
28066.767578 59859.187500 26113.261719
27979.769531 59894.851562 25867.669922
49774.796875 47297.328125 52282.308594
49697.640625 46963.855469 52340.789063
49578.601562 47126.820312 52106.953125
20105.419922 60233.253906 17145.630859
19860.976562 60150.707031 17168.941406
19978.925781 60149.261719 16844.363281
20016.417969 60177.976562 17406.892578
19786.308594 60084.015625 17460.941406
19942.333984 60093.863281 17626.923828
19543.427734 59984.175781 17520.367188
58192.367188 57484.617188 55949.394531
58266.167969 57689.640625 56079.867188
20202.566406 60256.375000 17365.681641
20179.839844 60181.242188 17619.197266
20346.509766 60149.308594 18992.873047
20465.476562 60110.300781 18802.314453
20140.343750 60104.343750 19111.349609
20362.996094 60284.042969 19235.287109
20105.744141 60252.121094 19695.648438
20108.417969 60188.859375 19404.107422
20257.039062 60358.085938 19500.603516
54390.375000 28271.738281 27018.333984
20287.406250 60476.062500 19749.134766
20252.730469 60236.218750 16914.193359
20326.498047 60308.296875 17182.742188
20566.652344 60375.671875 17247.826172
20380.341797 60304.429688 17441.029297
20632.314453 60370.445312 17507.039062
20448.171875 60246.164062 17688.509766
20712.648438 60303.250000 17748.751953
20268.091797 60110.914062 17890.769531
20548.777344 60176.121094 17924.128906
20649.373047 60135.007812 18116.982422
20384.750000 60060.265625 18164.511719
20636.328125 60099.625000 18334.648438
52334.734375 57561.132812 52353.183594
52531.082031 57818.472656 52447.003906
52580.042969 57462.808594 52594.964844
63431.757812 49196.777344 46238.121094
63270.597656 49060.468750 44853.796875
20586.136719 60397.851562 20541.648438
40612.023438 30493.460937 30791.826172
63230.691406 49050.460938 44526.742188
61311.082031 48987.917969 52454.011719
61186.457031 48785.527344 52321.878906
61077.324219 48963.929688 52394.156250
20894.302734 60432.585938 17580.835938
20815.763672 60221.406250 17993.767578
20836.115234 60166.078125 18228.898438
20914.732422 60190.359375 18547.111328
60946.515625 48815.218750 52288.484375
60570.050781 49427.531250 52520.199219
60648.617188 49210.914062 52424.375000
60489.984375 48723.003906 52124.335937
60261.082031 48961.859375 52167.789062
60563.621094 49002.062500 52287.503906
20873.958984 60037.742188 20659.986328
20819.492188 60333.667969 20680.732422
60408.539062 49223.910156 52354.058594
20713.742188 60049.125000 16653.375000
56084.125000 49294.460938 53207.453125
22041.339844 60196.308594 20714.736328
21703.322266 60166.007813 20687.960938
22067.970703 60197.937500 16783.328125
22235.093750 60042.042969 16837.787109
22095.832031 60448.601563 20810.271484
22324.451172 60256.949219 16823.902344
22886.914062 60170.839844 16908.412109
22289.138672 60597.972656 20890.175781
22559.232422 60443.324219 20949.716797
22329.775391 60317.113281 20822.406250
22636.820312 60316.113281 16869.503906
22764.640625 60308.675781 21013.623047
22934.015625 60122.457031 21110.398438
56126.218750 49075.332031 53085.554687
23132.189453 60186.812500 21348.441406
23293.132812 60345.937500 21578.966797
23489.451172 60258.132812 22230.992188
23530.363281 60389.359375 22472.333984
23466.320312 60115.976562 22466.666016
23521.017578 60387.445312 22967.732422
23501.769531 60392.582031 23258.468750
23470.085938 60382.335938 23685.597656
23452.728516 60319.644531 23941.408203
23504.318359 60230.468750 24417.929688
34755.664062 45811.281250 13558.685547
34967.558594 45871.410156 13337.290039
23649.000000 60221.667969 17017.976562
23583.505859 60346.062500 24712.787109
23652.783203 60153.789063 24926.496094
23835.382812 60068.164062 17173.082031
23757.082031 60190.390625 25186.496094
23868.041016 60247.945312 25454.302734
23897.328125 59936.925781 25352.648438
23984.410156 60327.640625 25720.021484
51347.437500 49207.496094 54636.875000
51177.671875 48898.984375 54548.648438
51274.824219 49164.769531 54417.332031
24130.888672 60139.753906 25885.617187
24314.074219 59947.386719 26030.646484
51173.296875 48999.171875 54302.539062
24517.775391 59975.984375 17718.792969
25041.361328 60059.121094 18298.177734
24686.968750 60046.222656 17832.541016
51192.613281 49168.824219 53920.812500
51138.058594 49000.218750 54104.828125
25159.947266 60211.824219 18371.814453
51022.320312 48922.886719 53580.496094
63987.769531 48493.476562 49564.304688
63936.753906 48623.519531 49340.625000
25346.412109 60167.167969 18768.898438
25708.464844 60210.042969 19319.882812
63996.539063 48611.503906 49823.867188
26177.902344 60026.910156 19734.167969
63837.859375 48816.871094 48796.125000
63887.761719 48732.359375 49100.656250
27003.689453 60146.484375 20414.042969
63876.941406 48474.011719 48631.687500
63893.164062 48564.464844 48913.882812
47983.519531 46962.722656 24658.371094
48362.046875 46968.929688 24796.474609
48154.757812 47252.105469 24892.388672
27332.412109 59902.359375 20896.253906
27396.921875 60104.871094 21389.484375
27393.507812 60039.027344 21143.566406
27237.189453 60290.917969 21571.076172
27251.498047 60303.582031 21232.773438
27511.371094 59857.109375 21362.960938
32396.345703 42801.652344 13607.135742
32448.980469 42896.097656 13566.609375
27220.855469 60201.535156 22055.486328
27227.095703 60146.476563 22304.382812
27167.248047 60193.593750 23005.066406
26991.371094 60396.398438 23093.857422
63576.203125 48886.644531 46609.402344
27295.125000 60165.914062 23495.000000
27395.402344 60177.773438 23958.152344
27277.421875 60263.320312 23758.906250
63660.593750 48614.222656 46694.980469
27352.886719 60301.687500 24164.763672
27437.619141 60266.621094 24411.199219
54297.070312 28218.949219 26648.746094
63434.328125 49059.933594 46006.253906
63528.324219 48731.195312 46020.695312
63512.238281 48939.519531 46290.050781
63619.160156 48588.707031 46364.824219
27514.308594 60236.074219 24676.091797
27604.589844 60057.691406 24471.990234
54107.371094 28534.470703 32951.417969
54330.433594 28585.921875 32630.691406
53931.921875 28428.558594 32658.976562
27810.027344 60134.191406 25799.080078
27647.904297 60373.480469 25710.296875
27719.281250 60164.097656 25510.435547
63339.367188 49088.488281 45416.792969
63436.406250 48890.667969 45710.386719
63416.433594 48613.828125 45100.570312
63340.347656 48919.429688 45105.175781
63344.578125 48719.531250 44777.328125
53925.269531 28298.095703 30857.648438
54165.226563 28389.578125 31000.222656
54175.496094 28389.935547 30753.425781
20564.326172 60236.109375 19011.699219
20802.714844 60316.261719 19011.986328
20648.414062 60397.609375 19196.039062
20489.576172 60508.289062 19445.962891
53992.707031 28317.326172 30503.888672
20478.230469 60659.570312 19667.265625
20424.849609 60676.109375 19946.623047
41997.214844 46874.300781 20992.667969
42242.718750 46781.648438 21034.664062
42129.937500 46968.804688 21274.207031
20407.548828 60498.320313 20273.398438
20897.472656 60418.144531 17259.527344
20868.681641 60456.304688 19152.416016
61430.308594 48751.949219 52346.902344
20739.687500 60574.406250 20613.355469
20595.181641 60676.031250 20427.107422
60211.718750 48711.054688 52029.210938
60043.937500 48825.578125 52020.894531
20931.898438 60268.207031 18845.865234
21139.392578 60314.753906 18806.470703
21257.904297 60268.449219 18565.250000
21386.480469 60372.429688 18806.816406
20777.212891 60581.484375 19314.816406
21053.824219 60602.082031 19205.126953
56221.843750 48654.152344 53700.367188
56209.449219 48869.980469 53807.117188
56153.554688 49069.113281 53330.703125
56192.871094 48914.828125 53557.449219
21342.533203 60421.066406 17873.431641
21477.037109 60328.890625 18175.111328
21752.134766 60392.664062 18200.808594
21885.333984 60399.414062 18449.546875
51785.589844 48903.175781 55802.652344
51874.089844 48763.558594 56034.578125
21510.687500 60320.484375 18615.257812
21590.462891 60414.109375 18804.689453
64043.839844 48297.351562 49786.671875
64040.257812 48450.226562 50068.816406
21415.955078 60565.398438 17550.244141
21550.029297 60595.152344 17239.605469
21693.757812 60651.289062 17492.843750
21643.078125 60557.191406 17745.349609
21613.263672 60433.855469 17984.541016
21632.441406 60326.781250 18419.302734
21505.060547 60527.023438 18984.064453
21771.203125 60534.074219 18905.595703
63951.339844 48898.140625 49844.429688
63997.812500 48743.433594 50092.601562
21736.548828 60392.621094 18657.621094
21449.828125 60350.136719 20751.884766
21232.046875 60525.328125 20769.248047
21890.281250 60532.761719 17944.035156
22178.867188 60567.609375 18046.330078
22021.117188 60462.597656 18228.015625
22239.509766 60515.210938 18259.898438
22143.958984 60479.332031 18466.921875
63932.613281 48480.242188 49122.664062
22383.556641 60554.066406 18416.966797
63978.468750 48371.703125 49332.445312
63781.878906 48574.125000 47758.558594
63840.433594 48367.621094 48057.226562
21982.943359 60683.226562 20819.105469
63731.964844 48576.625000 47215.714844
63791.855469 48379.121094 47448.273438
63741.593750 48657.988281 47475.382812
22514.546875 60738.519531 21007.154297
22962.337891 60466.898438 21210.439453
22757.783203 60584.367188 21095.638672
22885.326172 60727.742187 21220.306641
63789.414062 48259.140625 47148.753906
23167.882812 60536.828125 21428.800781
63726.367188 48454.429688 46916.242188
63718.246094 48321.812500 46608.222656
63786.179688 48130.328125 46856.210938
23406.576172 60496.265625 21782.857422
23471.240234 60381.925781 21999.712891
23534.261719 60534.804688 22227.183594
23383.173828 60202.113281 16953.216797
23591.591797 60690.324219 22500.080078
23493.710938 60244.664062 22711.554688
23557.093750 60485.523438 22705.927734
23567.148438 60575.207031 23130.703125
23558.324219 60600.820312 23351.923828
23621.007812 60630.433594 24743.900391
23675.636719 60448.250000 25007.343750
23770.935547 60423.457031 25281.449219
23868.701172 60562.425781 25519.773438
24102.660156 60381.507812 25950.455078
24010.033203 60587.265625 25825.246094
24174.072266 60489.964844 17140.144531
24181.205078 60591.449219 26110.552734
24398.548828 60368.882812 17317.480469
63543.398438 48487.406250 45707.417969
63614.328125 48430.839844 46056.664062
63505.738281 48382.164062 45312.152344
63430.136719 48732.214844 45389.250000
63460.441406 48309.730469 44926.675781
63388.277344 48387.386719 44552.285156
61047.632812 48594.285156 52199.593750
61291.332031 48579.546875 52238.265625
61179.410156 48385.234375 52126.800781
25042.630859 60476.433594 17918.150391
25157.265625 60508.820312 18149.900391
25213.630859 60424.882813 18373.539062
60890.675781 48356.125000 52053.875000
25427.216797 60391.316406 18890.220703
61114.195312 48143.667969 52006.714844
25918.003906 60440.804688 19545.234375
26167.058594 60814.347656 19837.390625
60783.128906 48630.394531 52157.957031
26626.037109 60244.707031 20016.798828
26821.693359 60296.957031 20215.201172
59485.273437 48440.878906 51637.500000
59342.007812 48696.542969 51663.652344
59636.238281 48655.109375 51775.828125
59595.875000 48189.441406 51598.117188
59358.125000 48230.847656 51522.929688
26881.453125 60484.671875 20399.341797
59007.613281 48434.863281 51433.007812
58815.023438 48680.460938 51409.121094
59082.578125 48691.179688 51543.339844
27134.472656 60214.171875 20623.126953
27048.767578 60404.871094 20620.490234
27028.365234 60574.847656 20859.888672
26891.289062 60674.101563 20643.505859
26724.105469 60619.652344 22262.632812
26880.115234 60469.492188 22282.642578
26762.349609 60569.394531 22461.914062
26968.753906 60514.246094 23370.328125
26794.835938 60642.429688 23119.492188
32711.880859 47625.687500 17241.765625
32897.789062 47789.429688 17267.972656
32682.064453 47776.644531 17417.964844
27111.027344 60496.429687 21079.167969
53788.398437 28212.570312 29846.787109
53901.285156 28272.857422 30167.865234
54070.269531 28330.183594 29943.332031
54011.117188 28260.154297 29197.175781
63833.472656 47954.292969 47087.574219
63859.417969 47661.484375 47019.093750
63867.457031 47761.625000 47301.113281
27146.068359 60277.523438 23289.849609
27155.123047 60460.984375 23851.986328
27078.582031 60656.714844 24007.253906
26977.730469 60648.769531 23693.408203
58775.503906 48350.730469 51298.707031
58567.644531 48542.750000 51245.175781
27216.248047 60477.468750 24101.906250
58186.617188 48611.976562 51076.058594
58331.457031 48447.695312 51106.734375
58092.074219 48416.925781 51001.933594
27275.337891 60336.148438 23967.785156
27289.421875 60467.425781 24342.607422
27161.054688 60648.941406 24257.529297
27223.730469 60659.687500 24493.406250
27357.904297 60461.117188 24599.011719
27363.410156 60647.746094 25064.611328
27427.833984 60441.496094 24871.013672
27499.314453 60409.375000 25147.029297
58364.875000 48714.371094 51184.632812
20673.521484 60722.257813 19514.972656
20607.921875 60826.933594 19740.033203
57855.035156 48429.402344 50934.597656
57982.191406 48629.453125 51002.542969
56482.804688 48890.652344 51328.816406
56483.148437 48607.546875 51374.101563
56332.648437 48772.617188 51563.367188
56183.382812 48844.859375 53279.460938
56201.035156 48546.992188 53205.839844
56211.898438 48660.699219 53462.382813
51095.296875 48659.820312 54693.226562
20899.349609 61031.808594 20369.615234
21069.714844 61092.195312 20472.494141
21001.542969 60908.488281 20605.398438
50781.554688 48141.898438 54364.554688
50896.906250 48363.601562 54412.609375
50861.585938 48219.242188 54569.410156
50822.414062 48469.734375 53751.703125
50812.152344 48377.535156 53951.765625
50728.761719 48282.433594 53735.683594
21142.761719 60811.023438 19340.896484
21328.343750 60966.832031 19425.349609
21051.886719 60957.949219 19512.763672
21190.414062 60986.398438 20633.158203
21174.755859 60769.207031 20730.095703
50767.171875 48428.578125 53532.531250
48308.738281 47552.109375 25122.855469
47948.941406 47534.968750 24995.902344
21439.949219 60676.218750 20760.375000
63970.269531 48258.230469 49133.683594
64021.699219 48088.914062 49315.132812
21918.554688 60694.187500 17294.570312
21905.835938 60667.949219 17624.720703
22151.164062 60722.648438 19034.267578
22019.869141 60595.128906 18903.792969
21759.576172 60869.882812 19259.039062
21892.333984 60710.472656 19086.591797
22010.783203 60877.183594 19237.394531
22139.339844 60669.761719 17784.556641
22354.714844 60673.843750 17923.367188
22277.757812 60590.292969 18738.146484
22549.642578 60683.820312 18801.484375
22375.009766 60727.593750 18972.650391
22235.863281 60747.148438 17220.439453
22412.398438 60810.441406 17426.900391
22412.917969 60606.039062 18151.871094
22611.640625 60643.222656 18324.554688
