1220
100133.500000 56642.429688 40520.683594
100258.625000 56729.343750 40670.871094
100525.976562 95271.054688 58318.546875
100428.382812 56725.031250 41193.839844
100431.820312 56647.378906 41537.390625
100594.796875 56849.804688 41361.820312
100680.906250 56881.007812 41615.242188
100553.062500 56706.117188 41856.816406
100641.632812 56734.078125 42150.082031
100780.953125 56915.230469 41925.921875
90862.828125 56907.609375 30822.603516
90847.171875 57081.492188 31076.695312
91396.445312 56718.765625 30978.441406
91145.921875 56949.460938 31038.468750
91588.515625 56963.019531 31277.503906
91748.437500 57130.640625 31348.787109
91850.226562 56851.460938 31339.281250
92318.515625 56897.210937 31623.996094
92873.640625 57029.757812 31849.101562
93128.179688 56988.984375 32005.359375
93092.992188 57144.332031 31824.789063
92957.375000 56821.726562 32045.744141
93463.851562 56942.843750 32248.277344
93662.453125 56935.304688 32404.255859
93623.289062 57097.878906 32229.359375
93868.445312 56932.285156 32582.919922
94064.234375 57167.242188 32575.294922
94433.101562 56679.703125 33189.937500
99500.421875 95276.070312 59495.734375
95894.171875 56899.597656 34698.105469
96112.453125 57007.449219 34866.886719
96005.398438 57210.507812 34661.316406
96031.562500 56699.675781 34911.804688
96802.500000 56957.964844 35596.898438
96618.976562 56978.636719 35374.363281
96624.140625 56725.597656 35539.718750
96811.140625 56725.074219 35763.269531
97314.664062 57113.453125 36156.640625
97384.570312 56919.531250 36362.722656
98331.812500 95647.500000 61657.343750
98457.062500 95757.531250 61458.562500
98592.898438 95536.523438 61580.113281
97782.921875 56956.210938 36871.890625
97962.171875 56908.917969 37118.972656
98925.789062 95370.007812 61438.445313
98677.976562 95230.968750 61752.398438
98159.468750 56837.652344 37378.273438
98363.359375 56907.046875 37672.765625
98496.984375 57170.390625 37935.769531
98313.085938 57267.406250 37722.550781
98958.859375 57097.593750 38530.085938
98845.343750 56999.835937 38332.738281
99148.320312 56936.539062 38700.945312
99264.531250 57075.628906 38883.675781
99440.937500 57073.503906 39080.699219
99630.742188 57055.000000 39310.289062
100117.867188 56988.789062 40069.777344
98701.226562 95681.398438 61237.207031
100398.515625 56998.613281 40591.675781
100442.132812 56862.066406 40893.238281
100606.328125 57191.273438 40833.042969
100620.359375 56979.933594 41125.195312
100770.664062 57060.632812 41376.265625
100920.398438 57139.390625 41680.101562
100999.695312 57117.898438 42015.597656
91066.867188 57188.613281 31228.111328
90782.437500 57265.707031 31293.966797
90723.351562 57450.226562 31444.699219
91314.625000 57057.992188 31214.638672
91398.328125 57320.390625 31363.878906
71154.468750 74743.171875 58838.226562
71153.515625 74477.203125 58969.500000
91997.281250 57226.597656 31297.230469
91741.000000 57369.636719 31257.777344
71001.148438 81453.765625 53326.628906
71047.679688 81230.328125 53259.585938
71023.757812 81477.554688 53073.039063
74479.421875 74364.242188 42247.832031
74207.218750 74364.335938 42520.226562
73890.781250 74375.960938 45842.992188
73803.210938 74591.718750 45675.343750
73733.421875 74651.148438 45957.429688
92419.218750 57103.750000 31544.931641
92553.718750 57291.472656 31404.384766
92789.226562 57305.941406 31465.183594
103514.242188 95225.367188 53109.492187
93264.609375 57434.875000 31379.103516
93353.250000 57522.867188 31135.341797
93078.546875 57468.410156 31158.533203
93212.734375 57291.820312 31661.263672
103654.679688 95379.179688 52329.605469
103591.593750 95038.921875 52502.742187
93448.617188 57413.140625 31598.500000
93444.867188 57276.988281 31851.527344
93463.578125 57122.582031 32074.363281
93653.468750 57264.578125 32052.080078
103151.734375 95174.046875 54959.160156
103001.453125 95411.148438 55068.492188
93843.367188 57540.507813 31762.056641
93648.375000 57412.621094 31807.197266
94081.953125 57314.050781 32428.208984
94458.015625 57455.000000 32675.228516
94509.906250 57187.406250 33044.187500
94473.867188 57318.914063 32881.175781
94451.117188 56956.429688 33122.226562
94850.234375 57310.167969 33302.023438
95008.093750 57256.683594 33519.617188
95033.570312 57461.289062 33371.542969
95164.843750 57263.675781 33700.160156
95049.757812 56967.851563 33706.507812
95271.312500 57169.082031 33889.644531
95402.179688 57059.921875 34105.441406
95680.554688 57465.328125 34170.382812
95603.375000 57205.890625 34261.097656
95844.046875 57376.789062 34406.875000
95751.765625 57068.125000 34483.722656
96218.273438 57414.445313 34721.144531
96201.765625 57224.792969 34835.097656
96378.125000 57345.066406 34902.757812
96473.343750 57236.246094 35061.589844
96308.929688 57122.156250 34988.503906
96447.554688 57028.863281 35169.660156
96628.875000 57220.324219 35214.812500
96814.945312 57198.332031 35427.027344
97023.640625 57421.207031 35452.511719
97021.562500 57185.250000 35690.488281
97225.210938 57464.511719 35683.296875
97250.585938 57287.992188 35924.367188
97119.656250 57024.386719 35949.757812
97491.351562 57186.968750 36373.070312
97628.765625 57273.933594 36548.371094
97589.351562 57406.156250 36395.625000
97589.804688 56998.054687 36601.382812
97754.710938 57248.328125 36765.457031
97906.109375 57197.007812 37034.222656
98056.945312 57142.257812 37293.734375
98432.562500 57445.351562 37924.589844
73931.554688 74374.468750 45538.597656
64299.652344 111971.648438 36108.179688
73809.335938 74647.367188 45397.062500
98787.429688 57279.222656 38361.933594
98925.000000 57388.542969 38580.652344
99100.156250 57221.406250 38745.472656
81340.937500 102221.171875 53952.785156
81173.875000 102090.296875 53836.511719
99555.187500 57348.066406 39218.285156
99736.046875 57245.738281 39421.101562
99809.125000 57018.003906 39569.917969
100012.257812 57144.101562 39817.761719
99895.218750 57318.777344 39608.882812
100071.437500 57419.585938 39826.675781
100188.046875 57260.363281 40036.960938
100301.593750 57125.238281 40295.859375
100471.921875 57296.472656 40501.800781
100338.000000 57399.605469 40231.632812
100928.054688 57522.675781 41202.945312
100790.625000 57251.800781 41137.863281
100942.804688 57319.210938 41400.171875
101094.750000 57429.359375 41638.695312
101241.476562 57517.136719 41886.566406
101101.289062 57298.910156 41855.308594
101192.171875 57320.070312 42094.839844
90894.968750 57586.742188 31435.730469
91721.406250 57602.359375 31130.656250
103235.687500 95187.421875 54688.121094
74850.937500 62684.917969 26165.593750
74607.203125 62542.492188 26165.191406
74815.109375 62365.988281 26166.605469
92478.210938 57566.609375 28790.525391
92494.289062 57662.656250 29763.181641
102573.710938 95204.570312 49726.894531
102831.320312 95162.273438 49847.496094
102703.210938 95293.085938 50058.281250
92573.781250 57628.132812 30519.849609
92562.015625 57660.714844 30239.322266
92880.882812 57514.437500 30915.273438
92454.140625 57407.578125 31213.083984
92698.359375 57510.890625 28804.080078
92882.015625 57481.003906 28955.236328
102298.148438 95309.179688 49674.027344
102391.234375 95199.726562 49455.839844
92909.585938 57522.539063 29857.267578
92979.671875 57537.156250 30088.048828
93102.234375 57504.449219 29907.248047
93075.750000 57538.218750 30744.421875
92750.164062 57419.007812 31220.103516
92938.250000 57527.734375 28682.384766
93156.585938 57521.187500 28846.019531
93085.703125 57469.164062 29062.890625
92872.531250 57482.027344 29250.734375
93226.984375 57483.652344 29244.964844
93038.976562 57474.042969 29458.660156
93322.343750 57515.914062 29783.417969
93098.242188 57540.585938 30306.484375
93279.562500 57534.281250 30106.203125
93199.007812 57528.968750 30923.035156
93510.546875 57521.070312 31359.523438
102183.085938 95448.382812 56382.390625
102478.312500 95366.304688 56220.417969
93644.453125 57626.789062 29929.923828
93519.695312 57573.093750 30259.892578
93301.179688 57553.562500 30688.515625
93619.718750 57595.312500 31137.089844
82858.484375 98330.312500 61457.238281
83097.875000 98304.039062 61563.714844
82895.015625 98154.656250 61591.480469
73976.820312 74391.406250 44807.742188
102610.367188 95413.242188 55978.097656
101898.382812 95177.984375 47735.722656
101938.976562 95212.695312 48041.648438
101717.398438 95426.703125 47895.773438
93905.757812 57692.226562 31165.681641
94016.929688 57746.671875 30958.757812
93783.671875 57623.175781 31382.316406
94052.890625 57732.914062 31377.494141
102088.796875 95018.617188 47898.367188
93688.890625 57530.691406 31579.898437
93931.523438 57639.796875 31591.210938
94199.593750 57759.843750 31605.533203
101869.031250 95134.148438 47420.476562
94154.937500 57471.167969 32258.630859
94672.679688 57622.062500 32653.333984
94624.171875 57499.191406 32823.023438
94870.375000 57723.078125 32680.066406
94808.625000 57614.718750 32846.468750
95017.718750 57738.957031 32836.171875
102081.882812 94939.320312 47591.835938
102015.492188 94921.734375 47267.949219
94950.242188 57613.976562 33031.839844
101832.406250 95104.218750 47111.347656
101977.203125 94884.460938 46959.714844
95177.890625 57449.984375 33559.847656
95189.875000 57589.753906 33399.925781
95359.164062 57451.074219 33779.320312
95585.492188 57572.531250 33946.851562
95855.851562 57589.390625 34253.964844
96056.695312 57453.042969 34558.449219
96465.859375 57593.687500 34759.152344
96228.375000 57620.089844 34561.390625
96613.859375 57923.664062 34450.871094
96436.109375 57794.859375 34523.445312
96705.367188 57815.441406 34662.683594
97258.429688 57769.042969 35194.363281
97045.320312 57606.511719 35234.582031
97240.625000 57637.925781 35438.562500
97457.906250 57715.136719 35685.882812
97386.546875 57515.832031 35893.824219
97561.687500 57677.679687 36004.203125
97650.359375 57623.976562 36289.496094
97459.328125 57405.761719 36152.925781
97744.796875 57529.328125 36586.781250
97914.273438 57537.867188 36931.375000
98011.171875 57394.714844 37201.886719
98158.156250 57420.492188 37474.238281
98087.109375 57681.050781 37235.578125
98479.687500 57661.515625 37983.445312
98395.656250 57874.421875 37783.417969
98317.343750 57577.175781 37747.503906
98623.882812 57557.464844 38187.867188
98751.601562 57548.410156 38374.121094
81386.343750 102003.343750 49852.683594
81403.234375 102089.492188 49602.667969
81622.414062 102073.625000 49748.585938
99228.125000 57680.796875 38913.507812
99139.460938 57916.210938 38779.906250
98968.531250 57697.382812 38640.593750
71090.632812 81198.218750 52960.226562
99598.882812 57655.093750 39243.601562
99416.906250 57562.644531 39090.921875
99438.312500 57768.117188 39089.066406
99759.148438 57491.468750 39423.160156
99946.210938 57601.757812 39633.925781
99804.554688 57789.667969 39433.269531
100137.593750 57713.480469 39885.593750
100313.804688 57659.273438 40157.316406
100215.765625 57488.984375 40020.890625
100613.882812 57508.816406 40671.769531
100565.648438 57771.425781 40559.070312
100464.492188 57575.265625 40406.984375
71990.250000 89623.484375 37439.472656
100715.453125 57753.722656 40798.777344
100770.921875 57491.906250 40943.746094
100873.507812 57763.292969 41047.984375
101059.179688 57561.753906 41428.238281
101036.359375 57791.917969 41307.863281
101367.609375 57540.152344 42166.867188
101792.320312 95080.835938 46805.351562
101744.710938 94986.234375 46221.675781
101738.203125 94919.453125 45923.792969
101620.570312 95131.132812 46063.941406
91110.960938 57871.808594 31284.181641
91436.539062 57769.660156 31156.644531
101571.343750 95161.218750 45827.566406
101593.273438 95049.218750 45381.355469
101658.242188 94976.687500 45638.707031
101535.859375 95186.093750 45586.941406
91950.718750 57644.132813 30997.515625
92191.968750 57580.847656 30971.060547
91759.570312 57818.269531 30901.580078
101447.695312 95363.406250 45368.250000
101537.718750 95125.476562 45084.062500
101627.734375 94880.679688 44867.804688
91929.382812 57974.601563 28332.515625
92046.210938 57795.578125 28527.841797
92049.976562 57778.765625 28735.191406
92284.804688 57657.324219 28606.878906
92077.398438 57841.875000 29231.292969
92219.421875 57767.253906 29448.869141
92436.695312 57647.914062 29521.583984
92079.851562 57960.917969 30040.791016
73939.031250 74394.015625 43964.289062
73998.804688 74324.484375 44234.468750
92887.781250 57683.578125 28223.613281
87267.164062 89342.257812 28297.994141
101320.296875 95508.085938 44312.382812
101341.109375 95173.523438 43776.183594
73849.054688 74606.132812 43791.863281
73971.101562 74309.539062 43652.957031
73795.734375 74200.671875 47091.945312
73829.429688 74230.554688 46765.097656
73686.296875 74434.406250 46864.937500
92333.546875 57748.304688 30360.041016
92521.789062 57734.566406 28174.880859
101314.015625 94990.312500 43296.898438
101385.625000 94973.898438 43598.550781
93399.070312 57854.742188 28288.642578
93635.179688 58053.273438 28348.939453
93571.039062 57851.105469 28552.445312
93294.390625 57516.332031 29013.798828
93497.390625 57592.617188 29110.904297
93678.421875 57746.585938 29005.103516
93832.531250 57932.964844 29047.292969
76294.976562 50309.957031 28137.542969
93740.703125 57757.683594 29295.947266
93557.179688 57585.984375 29569.177734
93918.359375 57758.089844 30099.648438
93881.296875 57710.800781 30369.011719
94088.882812 57944.046875 30010.585938
94217.562500 57879.457031 30850.359375
94165.828125 57811.027344 31135.708984
101238.625000 95003.226562 42985.242188
94300.179688 57862.726562 31335.515625
94312.101562 57746.808594 31847.255859
94790.265625 57756.472656 32466.433594
70992.578125 81414.187500 53750.082031
71013.546875 81306.085938 53515.507813
70981.210938 81554.000000 53522.324219
95061.742188 57840.312500 32585.208984
95378.070312 57957.398438 32635.078125
95230.335938 57970.570312 32421.441406
101174.320312 95000.789062 42673.453125
95597.281250 57945.125000 33025.136719
95555.023438 57886.875000 33222.488281
95801.007812 58010.140625 33132.000000
95712.953125 57930.214844 33371.832031
95350.101562 57632.359375 33541.191406
95537.234375 57806.773438 33466.964844
101118.875000 94986.328125 42345.917969
101077.148438 94971.929688 42060.894531
71125.476562 89254.429688 37414.042969
96504.828125 58064.023438 34023.230469
96239.726562 58044.394531 33840.066406
96214.601562 57932.792969 34110.707031
96212.796875 57792.031250 34355.410156
96023.015625 57609.414062 34396.511719
100587.687500 95137.039062 58680.859375
100766.312500 94886.671875 58794.121094
100580.171875 95019.726562 58924.347656
96435.679688 57938.757812 34296.722656
96688.148438 58025.050781 34265.105469
96813.773438 58113.578125 34057.625000
97110.906250 58025.175781 34458.773438
96960.390625 58072.546875 34258.343750
96840.695312 57971.082031 34464.691406
96862.742188 57615.832031 35044.523438
97082.460938 57755.164062 35029.480469
96914.312500 57779.207031 34855.945312
97212.632812 57973.820313 34650.175781
96988.164062 57912.539062 34658.875000
97148.414062 57879.125000 34833.804688
97412.273438 57985.542969 34797.773438
100777.789062 94953.218750 58457.281250
97462.171875 57915.703125 35089.621094
97459.492188 57832.238281 35368.863281
97684.671875 58010.718750 35247.894531
97672.000000 57947.386719 35552.171875
97690.429688 57896.464844 35846.945312
97754.062500 57868.355469 36133.042969
97856.484375 58041.753906 35973.621094
97969.093750 58097.621094 36234.386719
97830.843750 57826.785156 36429.214844
98014.820312 58032.750000 36590.707031
97904.375000 57775.453125 36703.890625
98076.101562 57932.757812 36943.714844
98238.742188 57779.457031 37524.445312
98564.515625 57923.531250 38019.437500
98750.437500 57981.902344 38260.613281
98980.242188 58035.125000 38538.718750
98800.812500 57775.546875 38412.613281
73658.531250 74673.164062 46322.484375
73529.218750 75005.226562 46061.625000
99252.820312 58158.824219 38757.347656
99356.421875 57957.843750 38962.750000
100734.835938 95028.789062 58078.492188
99623.546875 57975.558594 39195.976562
73855.429688 74346.625000 46196.800781
99999.078125 57897.398438 39657.609375
100139.132812 57989.683594 39851.960938
100283.695312 57958.886719 40091.105469
100425.742188 57830.722656 40332.894531
100511.078125 57977.367188 40471.023438
100632.531250 58000.558594 40664.074219
100946.265625 58038.312500 41148.113281
100785.898438 58012.949219 40905.195312
101130.921875 58116.195312 41418.871094
101302.187500 58094.792969 41664.335938
101218.265625 57778.019531 41635.894531
101391.734375 57976.792969 41829.339844
101396.296875 57766.191406 41966.984375
101548.523438 58033.843750 42065.722656
90938.656250 58099.703125 31291.521484
91137.070312 58085.339844 31152.214844
91038.140625 58297.992187 31034.869141
99175.804688 95292.531250 61145.160156
99442.671875 95035.265625 61133.625000
99237.726562 95110.750000 61431.570312
99280.992188 95185.257812 60864.398437
91499.257812 58077.171875 30821.669922
91753.000000 58165.042969 30302.320312
91565.789062 58298.285156 30337.429688
75514.882812 65109.890625 62649.195312
91751.429688 58151.523438 28504.121094
92018.320312 57966.320312 29529.992188
91917.531250 58105.949219 29941.376953
92089.968750 57947.800781 29822.429688
91916.578125 58072.242188 30172.476562
91884.093750 58019.902344 30411.175781
92169.812500 57955.554688 28038.816406
92231.718750 58116.417969 27784.455078
92418.890625 58223.121094 27656.537109
92369.335938 58528.101562 27603.662109
92529.265625 57961.957031 27845.796875
93207.406250 58144.289062 27872.136719
103946.476562 94753.906250 50689.445312
103921.882812 94749.578125 51039.003906
103853.554688 94980.335938 50884.593750
103694.484375 95214.476562 50774.988281
103798.671875 95154.039062 51065.734375
103318.179688 95195.906250 54414.855469
103308.679688 94890.851562 54567.628906
93784.757812 58123.519531 28597.695313
93932.828125 57917.968750 29507.699219
94122.367188 58089.562500 29854.017578
93962.867188 57869.660156 29792.875000
94059.054688 58134.433594 29624.902344
94207.812500 58178.226562 30084.066406
94103.742188 57902.285156 30289.902344
94319.726562 58324.820312 30264.552734
94274.375000 58116.941406 30321.939453
94253.390625 57985.855469 30563.625000
73440.757812 74347.507812 47972.339844
73477.781250 74445.804688 47631.671875
103041.234375 95071.210938 49787.406250
103051.390625 94957.710938 49542.046875
103265.460938 94964.140625 49710.296875
94501.757812 58440.847656 30592.710938
94392.890625 58236.957031 30499.017578
94508.875000 58279.671875 30697.416016
73034.820312 74537.070312 48360.992188
94393.890625 58078.000000 30744.470703
94522.320312 58194.503906 30933.820312
103075.960938 94741.117188 49024.761719
103088.734375 94638.218750 48761.707031
103313.203125 94639.265625 48931.945312
103058.414062 94849.429688 49284.140625
103291.210938 94745.750000 49198.296875
103002.109375 95008.179688 55756.152344
102930.976562 94886.601562 56067.242188
102841.937500 95209.851562 55873.011719
94661.070312 58101.109375 31449.933594
94668.882812 57984.085938 31719.152344
94791.453125 57934.789062 32000.505859
95542.078125 58110.519531 32484.140625
96131.015625 58447.367188 32619.656250
95631.093750 58040.296875 32714.818359
95503.203125 57943.843750 32853.886719
96381.328125 101834.320312 51599.761719
95744.765625 58037.289062 32885.078125
95997.445312 58146.550781 32907.062500
96088.671875 58129.316406 33137.703125
96262.898438 58289.437500 32904.292969
95931.257812 58022.753906 33383.511719
96339.523438 58229.019531 33158.871094
96190.867188 58124.894531 33388.332031
96464.398438 58217.390625 33422.378906
96534.046875 58320.058594 33175.046875
96054.976562 58026.980469 33630.847656
96280.203125 58119.707031 33604.132812
96474.906250 58145.480469 33721.781250
96749.046875 58386.191406 33335.175781
102825.703125 94864.140625 49089.851562
102842.507812 94961.015625 49369.980469
96662.195312 58231.097656 33590.183594
96976.562500 58201.746094 33879.796875
96719.085938 58168.640625 33823.281250
96886.726562 58277.550781 33641.917969
97136.843750 58335.109375 33728.371094
97028.289062 58441.246094 33498.839844
97263.500000 58149.718750 34219.171875
102897.093750 94745.460938 48860.648438
102651.632812 94598.039062 48051.484375
102414.554688 94824.976562 48214.390625
102398.578125 94736.093750 47908.144531
97476.640625 58324.414062 34040.078125
97374.070312 58428.734375 33816.687500
97224.742188 58246.976562 33953.093750
97050.960938 58147.683594 34072.765625
97385.328125 58079.652344 34497.386719
102224.648438 94857.140625 47806.000000
102320.140625 94709.007812 47610.367188
97791.695312 58347.667969 34347.457031
97713.203125 58436.398438 34129.000000
97571.429688 58234.617188 34291.914062
97685.242188 58178.386719 34594.339844
97885.437500 58237.769531 34804.062500
102181.804688 94772.632812 47385.089844
98091.460938 58414.449219 34870.992188
97940.390625 58212.550781 35110.964844
97865.429688 58089.449219 35729.230469
98024.015625 58216.652344 35927.250000
98218.898438 58404.667969 35860.480469
98177.671875 58348.210938 36133.425781
98172.390625 58289.382812 36441.031250
98362.710938 58532.218750 36043.937500
98344.578125 58495.253906 36306.472656
98379.859375 58475.777344 36612.300781
98203.585938 58234.066406 36757.320312
98368.601562 58399.570312 36876.113281
98227.531250 58004.277344 37283.156250
98283.929688 58225.304688 37054.183594
73233.570312 74453.171875 48178.953125
70981.804688 81540.523438 53988.128906
71007.468750 81300.203125 53960.113281
98417.968750 58276.078125 37337.445312
98525.148438 58150.835938 37802.125000
98368.921875 58078.566406 37560.125000
98911.359375 58456.632813 38019.675781
98710.875000 58218.117188 38038.503906
98922.960938 58273.105469 38285.375000
98700.226562 58391.769531 37772.933594
101932.343750 94853.500000 46644.750000
101876.882812 94851.101562 46386.179688
102067.578125 94623.679688 46412.781250
99517.843750 58224.039062 38965.789062
99766.242188 58309.238281 39186.644531
99949.367188 58429.289063 39366.929688
99899.382812 58139.488281 39450.039062
72648.140625 74625.937500 51193.968750
72731.390625 74403.875000 51318.484375
100082.718750 58177.554688 39710.601562
100222.398438 58215.343750 39934.925781
100368.257812 58257.648437 40180.058594
100528.640625 58236.980469 40469.082031
100417.140625 58052.660156 40311.007812
100945.609375 58545.250000 41115.234375
100991.601562 58285.039063 41211.500000
101109.281250 58446.832031 41366.480469
101294.929688 58386.582031 41620.015625
101444.367188 58220.867188 41843.847656
91249.273438 58306.679688 30791.876953
91043.796875 58507.847656 30777.865234
91188.882812 58645.476563 30415.814453
91362.515625 58465.308594 30383.828125
91464.390625 58842.757812 30065.207031
91718.398438 58267.105469 30089.355469
91768.757812 58276.617188 29810.490234
91611.773438 58484.472656 29919.841797
91503.882812 58473.839844 30163.306641
91710.007812 58505.058594 28262.353516
91681.328125 58683.527344 28426.878906
91672.523438 58403.433594 28486.404297
91650.460938 58617.714844 28686.447266
91762.875000 58254.898438 28267.642578
91648.039062 58624.300781 28975.097656
91670.085938 58474.011719 29660.095703
92135.242188 58702.449219 27714.708984
91981.125000 58513.914062 27809.294922
92157.726562 58369.195313 27693.302734
92649.703125 58393.050781 27598.626953
101154.367188 94810.210938 57497.414062
101253.867188 94961.289062 57274.527344
101418.695312 94747.843750 57352.773438
93196.648438 58617.804687 27747.476562
93485.453125 58156.519531 28090.052734
71384.289062 90303.195312 37427.550781
101513.875000 94722.828125 43715.375000
101447.820312 94958.890625 43882.683594
93748.164062 58334.511719 28343.705078
93890.976562 58459.601562 28716.830078
93897.546875 58162.140625 28908.230469
93961.273438 58405.843750 29042.574219
93961.187500 58159.011719 29276.474609
101461.429688 94727.156250 43425.859375
94579.992188 58508.597656 30816.314453
101309.351562 94697.359375 42503.468750
101442.343750 94549.140625 42807.652344
101313.695312 94794.820312 42813.992188
101408.140625 94713.984375 43096.359375
96281.601562 58442.925781 32718.173828
96134.773438 58296.382812 32748.126953
96453.046875 58351.320312 32996.691406
96437.039062 58490.582031 32827.886719
96603.367188 58478.175781 33025.917969
96940.828125 58572.015625 33302.652344
101220.273438 94744.843750 42145.214844
101144.898438 94794.335938 41845.871094
97248.015625 58540.867188 33612.863281
97444.437500 58680.269531 33730.746094
97273.617188 58807.964844 33558.726562
97593.812500 58553.859375 33916.828125
97621.343750 58831.898438 33869.753906
97785.531250 58692.218750 34044.398438
97902.687500 58559.003906 34258.164062
97948.765625 58836.625000 34210.675781
98048.851562 58695.234375 34405.429688
97964.171875 58428.687500 34549.734375
100737.562500 95092.304688 57744.734375
100877.164062 94882.625000 57875.527344
72692.960938 74527.664062 49051.031250
72438.937500 74827.007812 49032.296875
72495.195312 74681.000000 49284.777344
98301.382812 58621.683594 35006.941406
98175.750000 58412.070312 35135.265625
98364.390625 58579.394531 35340.257812
98070.070312 58274.753906 35652.769531
98283.109375 58466.167969 35613.078125
98126.906250 58335.058594 35377.203125
100979.664062 95096.351562 41805.359375
98388.421875 58558.207031 35823.156250
98525.078125 58641.613281 36418.187500
98562.421875 58711.195312 35963.933594
98490.117188 58636.796875 36194.929688
98672.210938 58779.335938 36247.039062
98538.085938 58568.066406 36844.347656
98493.750000 58450.171875 37100.113281
98525.671875 58300.886719 37583.617188
98698.226562 58524.351562 37416.695312
98896.195312 58728.128906 37240.265625
98990.953125 58721.933594 37483.214844
98921.851562 58592.875000 37733.312500
99128.523438 58499.722656 38257.847656
99160.046875 58333.414062 38510.769531
99314.648438 58527.332031 38449.203125
99517.648438 58665.273438 38493.003906
99439.843750 58439.707031 38697.074219
99655.296875 58653.246094 38711.195312
99877.757812 58816.949219 38870.117188
99694.921875 58505.175781 38938.031250
99910.882812 58605.148438 39165.812500
100077.914062 58426.246094 39583.871094
100188.843750 58409.367188 39793.414062
100318.632812 58491.160156 39992.781250
100490.242188 58570.707031 40273.703125
100995.601562 94650.101562 58649.589844
100866.859375 94674.335938 58935.757812
100639.046875 58523.710938 40593.484375
100754.429688 58743.152344 40711.667969
100779.437500 58515.328125 40856.761719
100850.601562 58276.640625 41002.683594
100861.750000 58722.671875 40924.031250
101105.226562 58713.113281 41318.890625
101221.835938 58620.046875 41504.148438
101371.296875 58691.328125 41689.179688
101488.609375 58504.792969 41863.132812
90900.617188 58872.953125 30601.822266
91215.000000 58833.867188 30284.158203
91518.390625 58980.343750 29949.072266
99641.781250 94834.203125 60997.964844
99659.648438 94792.023438 61283.078125
91899.054688 59048.281250 28224.757812
91895.898438 59149.621094 28455.865234
91772.656250 58944.156250 28410.425781
91696.578125 58848.414062 28593.996094
91807.187500 59057.566406 28644.525391
91879.429688 59135.281250 28937.001953
91705.468750 58875.367188 28824.798828
91648.085938 58667.894531 29253.636719
91714.414062 58900.742188 29104.408203
91708.093750 58931.562500 29378.890625
91949.078125 58830.800781 27951.837891
99386.617188 94895.507812 60329.207031
99557.007812 94742.351562 60491.871094
99461.164062 94944.820312 60719.679688
99466.265625 94917.695312 61429.570313
99566.445312 94677.796875 61565.675781
92381.664062 58860.304688 27668.242188
92646.648438 58681.828125 27604.623047
71429.335938 91784.453125 37431.070312
93846.320312 58764.757812 28756.787109
93754.921875 58920.535156 28980.718750
93963.078125 58673.035156 29520.787109
103603.273438 94396.687500 52371.542969
103618.570312 94626.718750 52220.332031
103691.835938 94396.117188 52099.632812
94056.562500 58685.710938 29822.443359
94339.648438 58775.148438 30418.767578
94432.523438 58886.316406 30666.921875
94555.140625 58807.742188 30858.976562
103698.031250 94637.226562 51966.144531
103783.179688 94431.960938 51824.773438
94688.085938 58700.468750 31125.353516
95413.765625 58696.546875 32082.640625
90155.968750 91076.031250 28929.277344
96126.851562 58907.058594 32590.675781
96636.601562 58924.617187 32957.906250
96386.335938 58963.652344 32772.769531
96551.953125 58701.835938 32858.835938
96808.867188 58905.523438 33102.535156
96769.296875 58670.324219 33094.804688
96955.242188 58785.875000 33237.480469
97424.898438 58978.292969 33723.843750
97780.015625 58978.640625 34036.484375
97925.593750 59128.304688 34227.714844
98192.039062 58712.175781 34677.070312
98290.445312 59025.316406 34677.925781
98563.671875 59079.738281 35075.253906
98434.734375 59204.617188 34841.882812
98395.414062 58900.929688 34897.421875
98493.359375 58821.660156 35172.148438
98492.070312 58665.742187 35654.621094
98702.843750 58881.175781 35747.230469
98802.351562 58921.128906 36042.242188
88087.007812 101727.859375 59147.085938
88057.484375 101947.500000 58969.746094
88337.554688 101768.335938 58969.683594
98742.382812 58740.210938 36780.683594
98728.179688 58784.597656 36514.289062
98575.296875 58647.503906 36634.023438
103541.046875 94645.546875 49098.144531
103827.000000 94522.750000 48970.945312
103758.382812 94642.585938 49282.003906
98943.968750 58911.898438 36660.917969
99135.546875 59018.761719 36796.109375
99146.265625 59097.726562 36561.984375
99347.500000 59009.972656 37336.531250
99221.843750 58860.593750 37528.488281
99120.085938 58739.207031 37703.484375
99323.328125 58846.488281 37781.808594
99549.289062 58993.960938 37839.472656
99446.890625 58839.972656 38036.734375
99679.039062 59018.886719 38074.039062
99166.851562 58668.937500 37974.355469
99359.203125 58676.699219 38253.171875
99597.445312 58849.062500 38287.984375
99740.796875 58851.550781 38549.156250
72176.125000 101089.210938 51010.062500
72031.585938 100988.078125 51268.750000
72200.335938 101173.226562 51256.109375
99820.148438 59056.117188 38327.593750
99952.906250 59082.250000 38618.375000
100078.179688 58902.875000 39181.148438
100271.757812 58721.246094 39744.070312
100089.179688 58679.175781 39422.750000
100572.460938 58916.847656 40174.207031
100650.328125 58789.808594 40458.796875
100772.085938 58928.937500 40590.945312
100734.632812 59027.320312 40390.433594
100996.289062 58834.562500 41091.363281
101159.320312 58962.675781 41292.878906
101259.593750 58843.324219 41507.085938
101445.609375 58989.707031 41713.007812
101544.578125 58782.421875 41903.320312
101609.906250 59009.125000 41944.332031
90740.484375 59281.593750 30608.746094
90923.898438 59134.460938 30450.853516
90881.546875 59441.679688 30419.933594
72849.140625 74282.867188 49278.925781
72966.000000 74288.625000 48987.425781
91986.382812 59253.050781 28664.958984
92123.273438 59326.593750 28909.833984
91851.742188 59122.359375 29243.773438
91825.031250 59140.125000 29476.458984
92000.265625 59274.304688 29408.109375
92042.617188 59148.863281 28089.968750
92192.843750 59072.175781 27872.216797
92222.546875 59321.011719 28164.943359
92176.812500 59375.714844 28668.447266
92069.140625 59286.007812 28384.898438
92379.718750 59414.347656 28863.396484
92448.726562 59117.238281 27799.449219
92410.398438 59299.250000 28004.882812
92424.906250 59421.511719 28244.189453
103506.695312 94750.921875 49368.996094
103143.507812 94056.023438 55079.988281
103117.796875 94262.039062 55397.480469
103183.882812 94433.460938 55027.062500
93059.914062 58811.187500 27676.166016
93053.804688 59075.945313 27781.982422
93264.710938 59041.546875 27773.005859
72295.164062 74652.406250 53996.882812
72362.562500 74511.640625 53741.281250
93210.312500 59260.410156 29028.804688
73269.968750 51189.226562 26150.406250
103172.382812 94848.414062 55096.582031
103143.406250 94601.992188 55318.421875
93469.710938 59188.218750 28481.576172
93298.703125 59277.937500 28355.511719
93298.710938 59284.531250 28831.123047
93460.250000 59221.089844 28715.302734
93500.781250 59139.921875 28949.167969
93605.679688 59020.621094 29165.898438
93567.656250 59037.789062 29372.560547
103247.625000 94687.898438 54804.976562
103222.671875 94154.203125 54758.562500
93883.007812 58843.007812 29633.267578
96069.312500 69956.437500 27615.300781
96313.804688 69742.906250 27658.863281
103237.632812 94959.929688 54826.199219
94131.882812 59180.523438 30364.953125
105716.179688 66986.656250 43648.800781
105728.554688 66991.875000 43400.390625
105687.960938 66769.039062 43583.132812
94456.007812 59087.902344 30870.595703
94295.757812 59082.062500 30562.279297
94570.453125 59204.597656 31154.400391
94605.328125 58958.382812 31078.113281
94861.687500 58801.496094 31480.744141
103300.226562 94571.242188 54561.640625
103245.296875 94432.203125 54742.218750
94788.867188 59203.410156 31552.335938
103282.382812 94328.062500 54557.792969
95246.687500 58998.199219 32056.738281
95117.046875 59292.113281 32085.472656
95371.718750 59416.976562 32436.076172
95572.648438 59171.667969 32440.488281
95594.570312 59425.906250 32620.326172
72301.617188 74400.000000 54030.390625
72238.320312 74260.007812 54297.011719
72321.992188 74150.664062 54053.500000
95850.554688 59138.496094 32576.023438
95864.226562 59330.890625 32721.251953
96482.171875 59181.515625 32970.464844
96107.953125 59148.066406 32712.349609
103144.078125 94412.109375 48170.242188
103414.210938 94349.187500 48160.726562
103369.789062 94432.281250 48388.968750
103055.093750 94184.750000 56011.820312
103003.492188 94162.039062 56335.941406
102974.156250 94501.414062 56273.722656
102856.164062 94777.796875 56374.964844
96701.179688 59131.804688 33108.417969
96902.265625 59041.054688 33240.019531
96789.031250 59310.667969 33302.425781
97209.679688 59109.074219 33575.179688
97336.984375 59321.257813 33804.816406
96998.320312 59208.398438 33423.519531
97090.640625 58929.109375 33390.921875
102875.242188 94551.140625 48282.675781
103102.664062 94532.281250 48479.531250
102827.289062 94684.929688 48589.550781
102653.601562 94694.539062 48341.765625
97577.765625 59125.675781 33906.011719
97723.664062 59263.707031 34095.460938
97529.429688 59374.074219 33995.355469
98047.953125 59285.695312 34397.210938
98242.281250 59329.136719 34606.304688
98610.984375 59368.562500 35031.230469
98722.976562 59222.824219 35256.222656
98647.414062 58999.464844 35293.160156
98791.515625 59095.671875 35522.625000
98595.335938 58829.566406 35453.550781
99113.242188 59296.566406 35965.328125
98912.640625 59101.519531 35840.250000
98997.257812 59101.128906 36097.636719
98929.234375 58974.277344 36344.941406
99008.187500 59355.511719 35653.679688
99188.304688 59240.292969 36284.992188
99324.414062 59273.781250 36535.574219
99319.429688 59183.542969 36759.410156
99271.718750 59052.839844 37037.644531
99116.632812 58870.089844 37265.953125
99641.390625 59320.851562 37226.007812
99511.226562 59294.640625 36962.125000
99469.460938 59160.359375 37191.351562
102899.960938 94454.312500 48040.835938
99553.187500 59153.953125 37413.003906
99856.976562 59340.636719 37765.785156
99732.312500 59145.789062 37882.679688
99892.210938 59253.101562 38075.640625
102552.968750 94560.359375 47740.929688
68991.664062 80216.062500 62155.003906
100094.382812 59127.757812 38923.937500
100139.531250 59346.800781 38680.328125
100268.046875 59406.585937 38979.531250
102692.734375 94402.882812 47546.070312
102798.031250 94429.265625 47808.171875
100409.132812 59463.566406 39264.425781
100247.007812 59195.957031 39219.632812
100402.796875 59266.234375 39486.421875
89332.984375 100592.117188 60511.820312
89033.593750 100614.023438 60545.843750
89154.656250 100717.210938 60304.726562
100447.468750 58925.914062 39925.777344
100581.421875 59143.582031 39954.253906
100732.570312 59182.953125 40182.285156
100850.156250 59214.093750 40369.519531
100877.109375 59116.125000 40570.175781
101001.117188 59329.843750 40491.910156
101056.968750 59236.332031 40771.085938
101197.273438 59290.539062 41008.828125
100901.523438 58954.953125 40817.351562
101084.554688 59085.156250 41045.808594
101276.500000 59220.953125 41270.906250
101306.789062 59056.996094 41477.050781
101447.195312 59250.191406 41553.640625
91041.500000 59600.652344 30291.957031
90881.984375 59706.316406 30433.916016
91034.039062 59347.867188 30297.474609
91232.375000 59420.707031 30179.597656
91575.789062 59401.195312 30026.265625
72440.750000 74440.351562 53399.617187
72418.859375 74263.875000 53602.414062
72478.078125 74155.625000 53404.824219
91914.187500 59289.203125 29663.697266
102491.781250 94525.664062 47499.929688
102347.257812 94591.796875 47315.074219
102168.351562 94711.656250 47120.601562
102312.570312 94413.296875 46610.425781
102277.062500 94343.507812 46261.929688
92178.953125 59346.394531 29332.306641
92160.343750 59388.765625 29557.019531
102135.968750 94653.828125 46790.578125
92638.015625 59446.742188 28411.113281
92342.648438 59428.363281 28496.476562
92576.906250 59451.597656 28684.378906
92701.054688 59398.921875 28933.005859
92478.898438 59391.507812 29121.916016
92380.343750 59391.085938 29384.945313
92868.867188 59416.546875 28622.931641
92651.210938 59367.671875 29244.048828
101869.476562 94621.304688 45494.304688
101830.125000 94617.093750 45259.652344
101984.804688 94434.960938 45399.210938
93435.453125 59701.539062 29975.814453
101735.335938 94808.414062 45435.863281
72502.117188 74262.312500 53211.777344
94086.882812 59412.859375 30359.351562
101958.765625 94378.351562 45097.855469
94250.398438 59353.378906 30579.406250
94459.304688 59375.683594 30981.392578
94574.234375 59465.812500 31201.191406
94663.039062 59556.632813 31359.582031
94665.023438 59323.898438 31370.373047
94837.359375 59401.257812 31719.216797
95353.406250 59646.882812 32534.048828
95249.593750 59829.617188 32423.242188
95772.070312 59567.519531 32830.421875
95549.656250 59725.250000 32738.888672
96294.187500 59417.906250 33030.292969
96129.835938 59601.855469 33067.582031
96050.578125 59418.320312 32890.308594
96533.921875 59438.480469 33196.597656
71367.742188 92084.867188 37428.289062
97078.375000 59411.250000 33625.875000
96889.085938 59451.312500 33482.808594
97387.695312 59595.632812 34000.101562
97157.500000 59641.074219 33829.656250
97637.484375 59568.089844 34172.000000
97873.210938 59415.578125 34286.507812
98115.390625 58998.195312 34439.253906
98058.023438 59554.488281 34470.406250
98267.945312 59687.539062 34648.625000
98793.781250 59486.441406 35219.445312
98867.203125 59338.796875 35412.820312
98973.070312 59558.460938 35416.605469
99126.101562 59610.214844 35598.593750
99209.210938 59532.378906 35821.132812
99310.570312 59489.257812 36092.863281
99442.390625 59484.824219 36399.128906
99483.179688 59382.890625 36682.062500
99715.406250 59505.167969 37037.558594
99818.867188 59519.386719 37293.167969
99921.789062 59537.968750 37555.253906
99745.851562 59330.179688 37482.613281
74495.000000 100644.257812 56485.675781
74414.031250 100448.789062 56741.878906
74292.796875 100487.453125 56470.609375
100082.078125 59486.367188 38171.718750
100018.953125 59294.765625 38382.871094
100188.718750 59545.277344 38451.851562
100459.937500 59873.039063 38801.214844
100337.273438 59800.027344 38514.968750
100302.835938 59609.804688 38745.039062
100434.976562 59670.531250 39040.292969
100419.523438 59073.007812 39720.929688
100590.140625 59360.960938 39730.246094
101648.546875 94672.414062 44338.390625
101708.750000 94444.898438 44068.828125
101427.093750 59628.132812 40883.500000
101248.460938 59442.562500 40841.203125
101377.039062 59469.367187 41107.242188
101312.437500 59605.488281 40649.707031
101157.898438 59565.773438 40401.632812
101153.734375 59435.273437 40629.367188
101450.179688 59419.656250 41367.160156
101635.039062 59527.320312 41588.605469
90892.281250 59945.066406 30528.947266
91062.609375 59863.707031 30350.783203
91263.351562 59713.523438 30218.888672
91296.851562 59991.835938 30325.074219
91527.125000 59822.273437 30211.923828
101618.093750 94451.375000 43565.699219
92209.445312 59698.812500 30024.236328
92181.046875 59896.441406 30171.066406
101539.757812 94513.703125 43288.285156
101551.523438 94417.687500 43055.812500
104909.734375 92863.476562 52281.480469
104890.757812 92869.164062 52531.664062
104786.937500 93038.781250 52382.585938
72109.960938 93146.804688 37436.664062
94524.640625 59797.226562 30817.525391
94521.335938 59633.917969 31012.587891
94644.312500 59862.402344 31014.343750
94638.882812 59707.613281 31207.230469
94746.203125 59757.652344 31389.185547
95022.710938 60051.429688 31615.423828
94847.953125 59800.570312 31587.251953
94938.343750 59808.710937 31810.724609
94968.742188 59516.500000 31940.734375
95031.335938 59786.230469 32031.884766
95401.109375 59898.839844 32608.144531
95746.500000 59829.585938 32918.386719
95940.875000 59692.488281 33004.085938
101505.117188 94351.234375 42539.972656
101401.218750 94441.062500 42192.398438
94974.437500 66315.921875 27522.826172
95151.609375 66145.171875 27740.371094
95245.882812 66237.500000 27544.417969
101279.625000 94429.992188 58209.710937
101220.039062 94545.320312 57957.640625
101426.750000 94341.773438 57955.113281
101014.570312 94711.078125 58184.046875
101072.390625 94724.359375 57791.179688
96676.171875 59910.457031 33529.296875
96483.335938 60082.539062 33402.226562
96483.742188 59774.812500 33353.164062
97257.523438 59852.648438 33987.796875
97058.960938 59930.792969 33836.566406
97854.851562 59704.390625 34353.898438
72560.085938 74212.453125 52986.144531
72629.140625 74153.976562 52721.750000
72559.187500 74437.679688 52802.835938
97676.429688 59827.566406 34256.144531
101252.921875 94544.617188 41610.136719
101285.125000 94572.835938 41925.027344
98334.679688 59966.234375 34654.480469
98449.460938 59522.496094 34820.445312
98478.664062 59814.574219 34807.160156
98798.882812 59897.042969 35042.058594
98890.070312 59743.363281 35208.757812
98982.265625 59986.824219 35163.074219
99115.234375 59830.992188 35414.824219
99294.023438 59795.902344 35698.652344
99363.156250 59683.707031 35934.425781
99505.976562 59733.816406 36167.792969
99627.968750 59997.398438 36107.511719
99684.125000 59907.949219 36331.914062
99608.648438 59710.570312 36420.546875
99621.203125 59596.078125 36624.058594
99759.687500 59848.582031 36591.054688
99758.500000 59682.421875 36835.234375
99893.601562 59922.210937 36843.281250
101292.984375 94396.351562 41332.433594
101406.523438 94240.828125 41529.925781
100254.234375 59905.800781 38011.371094
100119.617188 59653.800781 37963.160156
100228.953125 59727.382812 38232.781250
100604.234375 59929.128906 39084.125000
100535.531250 59491.246094 39494.417969
100608.445312 59723.863281 39345.445312
100706.968750 59622.816406 39629.671875
100771.359375 59531.484375 39829.437500
100904.265625 59719.281250 39806.511719
101565.250000 59981.199219 40502.597656
101371.828125 59783.500000 40445.468750
101499.257812 59792.648438 40695.691406
101604.265625 59808.710937 40929.437500
101687.742188 59812.488281 41160.082031
101787.414062 59991.343750 41007.941406
101529.648438 59666.789063 41074.472656
101570.593750 59619.687500 41290.234375
101822.906250 59732.453125 41696.980469
101787.250000 59812.281250 41435.285156
101220.523438 94352.359375 58686.011719
101019.968750 94409.960938 58980.980469
101972.859375 59935.085938 41664.171875
101962.320312 59803.187500 41899.289062
90927.468750 60183.402344 30684.037109
91173.585938 60345.257812 30640.228516
90993.335938 60412.914062 30859.779297
85134.726562 93853.085938 27886.488281
91105.460938 60107.695313 30472.330078
91363.984375 60226.683594 30462.902344
91843.921875 59919.535156 30236.660156
91579.312500 60087.742188 30343.753906
99967.273438 94623.585938 59627.164062
100303.742188 94450.828125 59519.308594
100108.890625 94383.031250 59697.507812
99841.429688 94603.703125 61073.742188
92264.359375 60167.460938 30265.068359
92678.679688 60146.511719 30037.121094
99878.429688 94476.789062 60747.957031
99691.531250 94698.585938 60750.460938
94581.554688 60177.410156 30048.919922
94850.000000 60168.542969 30773.582031
94797.765625 60051.390625 30998.345703
94975.320312 60208.144531 31003.302734
94884.453125 59982.886719 31379.841797
94897.750000 60085.699219 31176.652344
95173.921875 60179.250000 31774.142578
95253.062500 60304.250000 31538.677734
99721.718750 94549.757812 60473.753906
99911.312500 94335.773438 60472.160156
95338.375000 60324.835937 31811.501953
99571.289062 94664.203125 60222.648438
99785.343750 94436.226562 60195.984375
75065.710938 50790.394531 29678.650391
95342.101562 60201.800781 32213.445312
95175.171875 59954.289063 32191.587891
95330.695312 60051.406250 32423.968750
103974.914062 94376.976562 48646.207031
104265.539062 94266.796875 48752.808594
104146.773438 94383.609375 48978.113281
95600.656250 59990.093750 32788.500000
95513.625000 60146.046875 32602.806641
95809.453125 60069.082031 32952.335938
95722.757812 60233.578125 32776.593750
95916.585938 59911.871094 33050.296875
96049.164062 60109.003906 33105.730469
96093.460938 59825.121094 33139.226562
96273.671875 59954.050781 33263.074219
102605.906250 78021.343750 55377.265625
102726.523438 77938.234375 55173.125000
102610.593750 77793.476562 55306.574219
96704.218750 60208.261719 33535.417969
96869.843750 60055.449219 33687.398438
97072.882812 60216.050781 33796.449219
103830.062500 94174.945312 51976.398437
103728.046875 94160.781250 52258.351562
97371.437500 60053.203125 34049.812500
97193.828125 60065.156250 33941.667969
71481.953125 74895.046875 57693.937500
98087.679688 59888.554688 34496.765625
98552.234375 60045.722656 34777.523438
98647.703125 60218.070312 34724.660156
98450.125000 60186.285156 34608.855469
98654.843750 59920.757813 34912.613281
99054.875000 60184.562500 35088.042969
99214.312500 60131.054688 35306.210938
99299.804688 60000.406250 35526.085938
99444.281250 60048.429688 35708.843750
99474.398438 59894.539062 35915.488281
99906.484375 60092.406250 36643.906250
99808.953125 60044.128906 36453.941406
100002.390625 60139.972656 36849.460938
100018.773438 60028.781250 37058.011719
100135.507812 60306.203125 37026.917969
100128.695312 60142.429688 37239.175781
99893.031250 59751.691406 37104.546875
100052.453125 59923.609375 37317.062500
100196.203125 60121.046875 37492.605469
100106.375000 59814.773438 37660.941406
100476.789062 60593.000000 37718.859375
100338.445312 60366.218750 37608.093750
100421.343750 60400.128906 37835.289062
103638.921875 94271.007812 48008.570312
103822.203125 94297.679688 48200.175781
103613.781250 94358.632812 48285.738281
100636.414062 60161.808594 38836.027344
100783.992188 60164.808594 39133.710938
100816.812500 60349.550781 38962.562500
100871.781250 59895.457031 39568.230469
100760.289062 59980.773438 39311.511719
101097.585938 60099.406250 39659.222656
101082.171875 59921.789062 39821.855469
101749.593750 60179.187500 40581.738281
101684.695312 59982.371094 40758.335938
101871.328125 60188.320312 40841.652344
101995.531250 60065.691406 41421.734375
101999.078125 60203.113281 41143.601562
101853.812500 59976.429688 41231.070312
102131.671875 60025.175781 41885.218750
90850.835938 60422.871094 31068.882812
103239.343750 94237.273438 47683.820312
103507.171875 94212.023438 47735.312500
103328.843750 94297.437500 47940.640625
91887.695312 60439.464844 30517.902344
91687.976562 60521.453125 30613.216797
91637.843750 60320.605469 30484.810547
92094.656250 60316.898438 30401.921875
92474.601562 60638.859375 30224.757812
68059.390625 56068.519531 26088.980469
67742.953125 56033.828125 26053.269531
67905.210938 55858.078125 26092.271484
103057.445312 94341.054688 47873.175781
92957.968750 60553.750000 29809.642578
102967.507812 94280.445312 47575.457031
93348.742188 60630.957031 29459.736328
102951.773438 94099.312500 47018.683594
103187.539062 94038.382812 47030.125000
103026.015625 94160.812500 47268.972656
93802.390625 60398.378906 29408.232422
94060.601562 60472.132812 28963.886719
94048.156250 60376.148438 29219.402344
94085.203125 60271.804688 29537.271484
102804.921875 94280.562500 47362.328125
102580.148438 94388.031250 47267.613281
102784.992188 94215.515625 47137.039062
94312.710938 60283.183594 29336.937500
94343.789062 60231.148438 29604.298828
