1221
70862.640625 97299.625000 63077.656250
71547.984375 97509.976562 63022.722656
71426.968750 97273.070312 63225.304688
71148.773438 97219.539062 63215.257812
72095.093750 97558.984375 63060.453125
72215.023438 97283.578125 63362.109375
71796.984375 97338.062500 63234.566406
72794.187500 97496.742188 63228.085938
72555.570312 97343.453125 63364.906250
72458.703125 97542.164062 63129.964844
72807.726562 97271.328125 63480.246094
72509.304688 97099.773438 63594.496094
82318.210938 51408.855469 43112.109375
73392.421875 97513.328125 63264.207031
73087.117188 97399.492188 63376.726563
73100.703125 97626.882812 63096.769531
73378.523438 97249.742188 63577.105469
73055.335938 97207.093750 63585.449219
72850.156250 97058.539062 63699.589844
74058.843750 97568.632812 63219.140625
73725.953125 97415.070312 63409.648438
73685.421875 97647.601562 63095.511719
74069.921875 97340.281250 63533.066406
73782.789062 97144.218750 63746.007812
73691.867188 96912.226562 63998.246094
74300.171875 97454.164062 63395.339844
74387.679688 97304.125000 63605.339844
74178.140625 97136.914062 63801.726563
75053.617188 97626.117188 63147.417969
74901.039062 97468.625000 63393.011719
74734.117188 97613.476562 63164.609375
74382.304688 96940.046875 64071.902344
74477.953125 97147.625000 63818.832031
74722.507812 97065.632812 63951.710938
75376.015625 97622.882812 63156.820312
75191.929688 97495.085938 63362.398438
75517.203125 97415.132812 63502.554688
74735.148438 97279.492188 63660.515625
75107.632812 97334.687500 63604.164062
74981.968750 97172.312500 63831.230469
75032.398438 97006.257812 64070.121094
75866.320312 97481.578125 63416.664062
75748.062500 97633.242188 63147.472656
75912.539062 97176.367188 63925.785156
75625.695312 97077.554688 64044.941406
75650.921875 97236.039062 63799.773438
75879.937500 97340.117188 63655.320312
76416.812500 97493.281250 63438.097656
76093.992188 97578.429688 63261.703125
76379.695312 97676.875000 63094.316406
76098.351562 97437.960938 63508.917969
76237.218750 97294.750000 63769.503906
76183.773438 97101.875000 64090.296875
80690.171875 52376.433594 44451.386719
80742.812500 51978.015625 44445.789062
80966.859375 52141.503906 44376.648438
76147.960938 96937.820312 64364.851562
76754.296875 97490.062500 63481.335938
76700.117188 97622.640625 63219.921875
76649.476562 97346.390625 63736.792969
76517.179688 97168.156250 64036.488281
76972.726562 97218.164062 64042.613281
79889.812500 51933.875000 52311.613281
77001.789062 97570.187500 63355.589844
77289.164062 97508.906250 63525.730469
76989.835938 97416.343750 63658.503906
77253.117188 97369.835938 63804.472656
77405.484375 97275.203125 64042.460938
77273.320312 97137.648438 64288.386719
77592.781250 97603.210938 63376.812500
77940.531250 97567.851562 63537.632812
77593.257812 97438.679688 63744.425781
77644.171875 96961.796875 64811.347656
77754.992188 97089.390625 64577.289062
55216.984375 97959.359375 60662.847656
55506.691406 98285.859375 60787.675781
55739.003906 98327.101562 60941.617188
55735.601563 98068.179688 61024.511719
55469.617188 97995.718750 60853.660156
56016.460938 98192.742188 61160.679688
56343.847656 98187.187500 61326.476562
56187.738281 97942.773438 61304.804687
56450.703125 97940.242188 61403.710938
78276.570312 51847.261719 50102.148438
56630.902344 98169.843750 61434.050781
56733.593750 97902.328125 61486.539062
56831.550781 97609.898438 61512.386719
57053.078125 97855.078125 61554.886719
56924.929688 98140.546875 61515.273438
57279.324219 98145.179688 61574.906250
57624.738281 97998.507812 61622.335938
57656.269531 97720.929688 61624.292969
57383.589844 97789.820312 61602.066406
58523.238281 98220.867188 61624.820312
58690.058594 97945.765625 61631.332031
58364.875000 97942.187500 61639.566406
58850.074219 98224.859375 61613.835938
59159.972656 98242.757812 61594.847656
59370.375000 97972.375000 61598.171875
59018.558594 97964.015625 61619.773438
59456.273438 98305.687500 61562.640625
59691.906250 98113.773438 61564.910156
59979.074219 98242.835938 61517.417969
59944.906250 97941.210938 61555.769531
60227.714844 98060.085938 61516.621094
60165.863281 97795.421875 61543.738281
60565.171875 98166.710938 61457.449219
60435.667969 97833.250000 61516.828125
60746.925781 97875.687500 61486.609375
78315.007812 52023.265625 50300.164062
60905.664062 98137.453125 61424.824219
61213.082031 98143.921875 61382.824219
61054.574219 97875.757812 61458.539062
110813.523438 51465.648438 57770.824219
110824.648438 51180.492188 58009.949219
61719.941406 98060.257812 61353.371094
61482.933594 98170.804688 61341.433594
61693.339844 98357.492188 61244.007812
62003.972656 97991.117188 61357.347656
62300.128906 97968.609375 61350.289062
62807.406250 98063.007812 61293.804688
62562.468750 97941.406250 61354.960938
62525.125000 98223.359375 61219.460938
63395.609375 97888.296875 61394.464844
63075.582031 97952.312500 61350.277344
63328.562500 98166.929688 61228.992188
63712.277344 98139.640625 61251.039062
110942.531250 51406.558594 58323.792969
63720.746094 97799.273438 61466.730469
64049.972656 97986.460938 61377.296875
110652.484375 51217.062500 57311.480469
64335.304688 97841.859375 61502.656250
64019.218750 97675.367188 61569.339844
107252.562500 51181.316406 47044.207031
64655.312500 97980.117188 61432.507812
64584.558594 97683.765625 61640.183594
64286.523438 97548.000000 61680.617188
65310.746094 97767.468750 61685.656250
65476.800781 98029.007812 61470.574219
65622.578125 97850.695312 61657.812500
65284.195312 97502.632812 61893.261719
65618.242188 97583.328125 61890.371094
66435.289062 97987.859375 61621.585938
66602.242188 97828.046875 61813.710938
66258.265625 97803.734375 61792.304687
65810.593750 98039.500000 61495.054688
66147.726562 98017.523438 61555.089844
65913.710938 97813.796875 61732.226562
67127.921875 98122.468750 61540.886719
66960.687500 97879.210938 61804.800781
67161.750000 97682.226562 62051.136719
104878.250000 51452.757812 39382.140625
67502.992188 98161.781250 61535.820313
67326.031250 97925.992188 61800.156250
67514.843750 97722.031250 62058.039062
67686.843750 97957.523438 61811.367188
100629.265625 43835.816406 69131.554688
67997.304688 97960.539062 61850.179688
67931.664062 98183.007812 61561.007812
68181.296875 97812.914062 62047.593750
68530.007812 97825.234375 62079.214844
68825.343750 98046.804688 61852.855469
68902.343750 97757.429688 62209.863281
69283.476562 97783.898438 62244.441406
69623.359375 97824.679688 62259.687500
70131.609375 98069.351562 62048.476562
70293.156250 97911.367188 62291.476562
69961.421875 97865.609375 62278.093750
70723.000000 98117.632812 62098.902344
70605.875000 97959.703125 62296.089844
70457.554688 98102.726562 62066.164062
70794.726562 97820.289062 62512.359375
70473.171875 97760.796875 62516.496094
71159.757812 98101.554688 62201.128906
70903.773438 98020.906250 62271.933594
70970.148438 98198.867188 62017.824219
71176.531250 97896.773438 62487.472656
71612.226562 97904.039062 62561.945312
71442.820312 98092.484375 62260.511719
71658.718750 97702.531250 62832.507812
72210.718750 97936.164062 62605.789062
71962.796875 98012.109375 62462.585938
72282.117188 98099.281250 62352.253906
71811.531250 97587.406250 62989.660156
71954.421875 97789.898438 62769.859375
72334.296875 97767.671875 62843.656250
96995.539062 51901.023438 31329.373047
72527.429688 97965.359375 62580.992188
73348.992188 98026.546875 62497.593750
73197.414062 98171.648438 62233.343750
73525.578125 98170.023438 62219.257812
72763.000000 97760.343750 62886.328125
96173.921875 52874.828125 31339.826172
76168.320312 57205.105469 44556.625000
73652.375000 98044.453125 62457.734375
73593.085938 97867.703125 62760.445312
73389.390625 97706.320312 63005.812500
96488.109375 52116.152344 31336.845703
96277.046875 52333.257813 31339.828125
96211.789062 52067.515625 31340.859375
75982.296875 56983.132812 44530.445312
74710.125000 97912.273438 62655.527344
74315.601562 97903.304688 62681.679688
74548.812500 98040.187500 62420.085938
73936.835938 97979.695312 62559.796875
73971.796875 97785.539062 62888.007812
91667.718750 48792.457031 66398.640625
91798.578125 48489.214844 66371.781250
91645.328125 48657.078125 66148.648438
74414.398438 97596.281250 63188.796875
74555.257812 97755.664062 62932.574219
75663.429688 97946.250000 62567.230469
75527.046875 97781.875000 62879.996094
75355.125000 97898.265625 62667.160156
100894.031250 43894.785156 69130.625000
76290.929688 97987.273438 62474.351562
75976.617188 98046.679688 62354.589844
76663.718750 97776.648438 62911.812500
76973.382812 97719.593750 63046.761719
77155.734375 98071.757812 62256.601562
77045.703125 97960.523438 62523.925781
76853.562500 98072.539062 62268.886719
77430.054688 97987.398438 62452.375000
77416.750000 98149.343750 62033.089844
77258.171875 97828.906250 62826.750000
77283.492188 97662.843750 63197.312500
77760.882812 98071.500000 62217.804687
78105.867188 97897.328125 62703.265625
77803.906250 97945.718750 62560.015625
78111.859375 98016.640625 62357.234375
77580.257812 97867.679688 62752.343750
77571.375000 97747.632812 63040.058594
77843.078125 97824.171875 62879.187500
77869.140625 97701.031250 63193.191406
55092.519531 98268.890625 60445.089844
55360.191406 98492.179688 60580.929688
55793.500000 98770.125000 60768.761719
55618.398438 98560.781250 60751.273438
55906.257812 98510.164062 60975.640625
56114.082031 98732.148438 61002.281250
56445.839844 98701.789062 61201.941406
56536.550781 98431.718750 61344.500000
56230.960938 98455.656250 61193.226562
92414.625000 50975.339844 31354.320312
92643.335938 51225.832031 31353.816406
56816.226562 98398.921875 61448.281250
57060.804688 98358.554688 61517.257812
57024.113281 98603.937500 61447.402344
57239.910156 98754.679688 61442.671875
57287.679688 98496.671875 61525.882812
91861.960938 51192.253906 31349.867188
92120.945312 51084.664062 31352.289062
57517.046875 98730.710938 61487.511719
57850.683594 98701.789062 61526.324219
57635.664062 98377.875000 61583.878906
58137.347656 98675.882812 61548.867188
58330.160156 98479.851562 61593.078125
58007.218750 98430.765625 61601.960937
58425.210938 98804.382812 61497.199219
58692.414062 98526.421875 61569.980469
58740.804688 98808.835938 61484.964844
58972.074219 98682.546875 61514.542969
59248.464844 98540.984375 61532.285156
58989.035156 98444.453125 61576.777344
59437.472656 98765.750000 61435.609375
59521.765625 98544.320312 61505.429688
59182.554688 98793.976562 61456.382812
90248.695312 51954.320312 31318.548828
59731.000000 98409.531250 61513.753906
60303.632812 98976.835938 61181.308594
60576.937500 98811.687500 61220.402344
60289.894531 98679.828125 61338.253906
60791.003906 98369.906250 61375.835938
60866.562500 98638.437500 61253.039062
61104.289063 98822.539062 61105.824219
61143.105469 98597.148438 61225.562500
61556.976562 98582.312500 61156.347656
61355.808594 98421.875000 61266.085938
61796.726562 98618.664062 61092.320312
62071.218750 98670.671875 61011.421875
61997.035156 98426.296875 61171.203125
62297.601562 98476.093750 61099.671875
62344.894531 98744.351562 60902.933594
62612.082031 98858.671875 60740.363281
62648.730469 98566.570312 60988.003906
62963.867188 98551.359375 60970.312500
63184.027344 98664.382812 60845.386719
63194.765625 98416.234375 61057.917969
62867.015625 98335.437500 61133.632812
63054.156250 98187.710938 61220.789062
63415.406250 98582.820312 60902.757812
63711.257812 98631.484375 60827.156250
63536.371094 98397.773438 61056.808594
73371.140625 57032.273438 47788.242188
73553.429688 56829.039062 47924.984375
63837.179688 98413.765625 61034.625000
64109.492187 98579.843750 60854.878906
64094.679688 98285.648438 61146.664062
110701.382812 73553.843750 63425.500000
110760.828125 73408.000000 63731.472656
64442.890625 98414.992188 61027.703125
64830.199219 98515.078125 60917.207031
64713.195312 98256.601562 61194.953125
65405.050781 98635.148438 60762.183594
65190.195312 98475.835938 60971.949219
65104.765625 98648.039062 60745.320312
76887.234375 56766.480469 53147.394531
65190.941406 97997.562500 61470.054688
65284.007812 98240.218750 61240.804688
109768.851562 51073.164062 54598.945312
66403.570312 98404.125000 61115.812500
66108.937500 98505.546875 60961.398438
66463.226562 98632.625000 60791.117188
91496.585938 45860.847656 31392.359375
91435.562500 45459.468750 31396.080078
91795.679688 45593.847656 31394.242187
109180.429688 50775.070312 53100.898437
66950.718750 98451.304688 61096.929688
67185.210938 98554.820312 60966.441406
67270.617188 98365.218750 61243.289062
109132.257812 51190.628906 52537.925781
109221.328125 51230.812500 52849.601563
67490.539062 98561.945312 60979.886719
67847.679688 98586.742188 60973.406250
67681.367188 98385.609375 61257.324219
68589.601562 98685.187500 60865.902344
68742.132812 98520.234375 61167.421875
68416.992188 98480.968750 61196.218750
69381.625000 98706.695312 60894.789062
69392.828125 98545.562500 61196.953125
69037.328125 98656.437500 60957.117188
69304.289062 98342.156250 61518.234375
69005.062500 98260.265625 61596.722656
69022.453125 98444.023438 61321.941406
69968.632812 98656.171875 61045.085938
69754.984375 98539.062500 61253.136719
69659.187500 98677.328125 60976.039062
69857.687500 98390.710938 61521.328125
69583.421875 98412.250000 61448.203125
69597.429688 98224.031250 61734.929688
69133.937500 97947.835938 62026.328125
69218.328125 98139.789062 61794.164062
69441.859375 97995.500000 62017.867188
70269.414062 98635.164062 61113.296875
70056.890625 98526.226562 61312.867188
69976.976562 98230.570312 61789.250000
70316.289062 98254.078125 61811.835937
70823.210938 98474.148438 61498.917969
70595.968750 98595.460938 61220.234375
70971.023438 98618.179688 61196.550781
70167.906250 98394.289062 61561.792969
70483.757812 98424.937500 61549.839844
110868.960938 73139.656250 63720.945312
110817.726562 73255.601562 63936.546875
71159.117188 98515.593750 61450.492188
71043.750000 98367.156250 61738.039062
70686.882812 98282.390625 61828.734375
71315.570312 98422.054688 61667.519531
71312.265625 98267.718750 61953.925781
72141.070312 98511.718750 61475.746094
71803.250000 98512.046875 61482.910156
71978.437500 98609.039062 61210.996094
71673.960938 98244.617188 62039.363281
71982.226562 98373.859375 61802.972656
71997.765625 98193.437500 62163.683594
110724.976562 73481.437500 64016.906250
71734.773438 98097.367188 62300.785156
72641.273438 98597.500000 61173.312500
72471.265625 98679.742188 60907.562500
72806.023438 98502.062500 61454.605469
72470.539062 98513.500000 61453.582031
72314.500000 98424.703125 61695.000000
72368.867188 98285.070312 62004.027344
72612.328125 98408.554688 61724.476562
72761.343750 98293.984375 61991.429688
72635.148438 98151.234375 62275.128906
73508.367188 98497.375000 61392.582031
73174.046875 98480.156250 61479.832031
73312.703125 98577.140625 61148.941406
72941.515625 98396.875000 61737.230469
73068.984375 98291.843750 61988.296875
72941.562500 98023.609375 62499.246094
72923.906250 98193.054688 62201.171875
112099.359375 55839.152344 60853.398438
112140.242188 56110.562500 60959.265625
91739.039062 48390.628906 66058.976562
91556.484375 49032.691406 66399.195312
91664.750000 48981.320312 66626.351562
73873.828125 98150.554688 62234.804688
110921.687500 73014.921875 63444.914063
111027.257812 72750.562500 63501.519531
110978.367188 72860.835938 63723.769531
110815.578125 73277.093750 63515.781250
111015.351562 72786.093750 63258.851562
110918.500000 73020.601562 63136.269531
110819.000000 73265.398438 63264.421875
110722.531250 73492.562500 63085.375000
76879.828125 98680.148438 60403.734375
76701.625000 98632.687500 60617.648438
76525.335938 98711.281250 60376.113281
76703.062500 98554.179688 60897.261719
76420.820312 98618.937500 60720.011719
76083.453125 98600.835938 60832.605469
76354.328125 98515.789062 61088.250000
76112.414062 98434.398438 61379.855469
76453.078125 98401.687500 61441.089844
76228.085938 98319.289062 61696.316406
76565.148438 98296.421875 61730.578125
76706.484375 98188.007812 61998.964844
76983.585938 98590.546875 60699.808594
77318.070312 98530.156250 60820.566406
77030.109375 98494.000000 61035.519531
76725.046875 98455.804688 61230.582031
76740.281250 98366.843750 61510.835938
77060.453125 98380.523438 61411.156250
76890.929688 98282.109375 61733.039062
77040.898438 98174.781250 62004.722656
77225.953125 98266.976562 61730.214844
77566.375000 98555.453125 60628.750000
77361.398438 98433.101562 61163.976562
77681.312500 98455.695312 60966.367188
77420.078125 98339.671875 61472.816406
77616.765625 98380.289062 61280.792969
77708.867188 98302.226562 61526.207031
77515.273438 98254.320312 61722.437500
55588.417969 98836.265625 60568.386719
103406.273438 51146.355469 34635.898438
55757.523438 99153.937500 60456.613281
103102.250000 50627.398438 34538.757812
56909.437500 99213.171875 61110.378906
57024.457031 98924.664062 61311.382813
56677.667969 98953.843750 61177.046875
57374.828125 98998.062500 61356.218750
57741.816406 99031.601562 61385.730469
57536.667969 99270.304688 61230.582031
58089.164062 98934.093750 61450.359375
91603.335938 50309.707031 31355.019531
58347.292969 99123.164062 61357.324219
58047.660156 99224.054688 61303.058594
58644.492188 99041.648438 61388.007812
91313.937500 50083.730469 31354.882812
59098.093750 99191.125000 61261.851562
58964.703125 98969.500000 61398.183594
58829.742188 99239.429688 61260.687500
59284.363281 99002.148438 61345.597656
60837.480469 99200.757812 60892.843750
60842.628906 98946.132812 61083.335938
60584.617188 99093.906250 61042.218750
60326.246094 99256.531250 60978.355469
61088.777344 99074.250000 60930.531250
61968.949219 99078.890625 60674.714844
61631.605469 99030.179688 60821.429687
61668.179688 99243.367188 60584.152344
90480.632812 45248.679688 31397.744141
90135.101562 45056.250000 31398.849609
90396.078125 44917.339844 31401.275391
61348.332031 98699.109375 61129.710938
62113.628906 98874.804688 60844.929687
62310.820313 98981.789062 60687.363281
61863.066406 98853.187500 60916.375000
62911.296875 98754.570312 60790.847656
63687.937500 98850.648438 60564.773438
63435.320313 98767.742188 60705.113281
63933.988281 98771.273438 60640.292969
64857.800781 98755.093750 60593.125000
64504.710938 98669.148438 60727.523438
65583.109375 98770.210938 60555.468750
65783.265625 98615.937500 60792.980469
66115.750000 98685.242188 60697.992187
66912.687500 98652.179688 60789.269531
67658.992188 98735.593750 60704.203125
68548.195312 98866.812500 60493.695312
68307.664062 98772.898438 60684.519531
68895.765625 98827.601562 60599.218750
69248.570312 98814.187500 60651.093750
69571.023438 98802.453125 60695.851562
69878.632812 98777.687500 60764.179687
70182.992188 98753.414062 60831.835938
70490.617188 98731.734375 60891.371094
70816.984375 98721.593750 60920.875000
71104.359375 98715.195312 60943.437500
71326.828125 98641.414062 61148.183594
71355.890625 98748.500000 60825.058594
71564.687500 98698.492188 60974.597656
71433.335938 98827.351562 60520.546875
71656.078125 98762.171875 60740.906250
72141.101562 98685.976562 60938.476562
72297.078125 98751.578125 60659.484375
72979.750000 98739.781250 60584.261719
73663.570312 98711.078125 60600.082031
74560.679688 98713.140625 60527.273438
74822.226562 98646.234375 60758.535156
75852.992188 98671.398438 60607.789062
76178.039062 98689.351562 60508.054688
110605.007812 73779.320312 63149.312500
57013.445313 99767.976562 60624.597656
56770.617188 99608.382812 60701.183594
56840.125000 99423.281250 60931.597656
57006.261719 99608.414062 60830.988281
57111.039062 99457.695312 60999.753906
82181.601562 50626.226562 43463.375000
82241.257812 50310.484375 43391.351562
82361.351562 50480.625000 43100.589844
57278.679688 99689.328125 60823.187500
82491.070312 51322.855469 42465.050781
57405.187500 99489.000000 61045.742188
57610.519531 99699.921875 60888.867188
57706.496094 99498.484375 61092.898438
58795.972656 99703.179688 60883.996094
59141.300781 99727.929688 60810.531250
59045.296875 99455.609375 61076.136719
58561.648438 99266.953125 61267.652344
58668.136719 99468.953125 61112.500000
91600.812500 48573.218750 65887.148438
91682.625000 48313.847656 65762.679688
91536.335938 48523.835938 65604.882812
59454.906250 99765.117188 60710.230469
59737.644531 99603.851562 60813.773438
59412.359375 99534.679688 60952.324219
59368.496094 99261.460938 61173.691406
74476.953125 38198.171875 39219.085938
80298.867188 51063.488281 51982.734375
59709.218750 99338.257812 61054.316406
60040.828125 99430.664062 60899.984375
60012.109375 99147.929688 61129.609375
60310.789062 99745.515625 60420.445312
60635.250000 99624.484375 60471.000000
60374.417969 99516.812500 60713.281250
60618.632813 99485.890625 60678.285156
60842.203125 99430.335938 60656.175781
76586.218750 56138.027344 44520.035156
76843.710938 55917.363281 44523.007812
76908.414062 56245.332031 44542.957031
61178.175781 99582.406250 60276.691406
61177.503906 99431.976562 60524.175781
79937.859375 50701.175781 51199.675781
61347.386719 99205.398438 60733.960938
61453.261719 99368.695312 60505.632813
79731.195312 50671.898438 50921.132812
57255.429688 99893.640625 60554.066406
57540.164062 99885.968750 60648.820313
57844.042969 99869.750000 60722.226562
58357.578125 100177.242188 60161.570312
58364.609375 100032.953125 60491.222656
57918.183594 99680.015625 60949.308594
58194.828125 99835.843750 60782.402344
58900.570312 99943.976562 60573.796875
58453.792969 99668.445312 60955.789062
58558.500000 99879.687500 60713.179688
59230.007812 99893.648438 60598.222656
110602.468750 50564.101562 57573.929688
59735.683594 99818.742188 60551.957031
60039.671875 99675.414062 60636.382813
97831.890625 32107.054688 64583.703125
97464.164062 32195.669922 64572.050781
97641.132812 32136.750000 64871.894531
109709.500000 50070.257812 55062.976562
109667.242188 50286.957031 54807.652344
97779.351562 32160.761719 63959.316406
97636.718750 32165.515625 64272.019531
98047.703125 32102.175781 64257.570312
97775.218750 32110.824219 65142.183594
97700.203125 32152.970703 65462.945313
98049.476562 32086.867188 65289.957031
98082.117188 32102.957031 65641.453125
97826.632812 32176.964844 66132.984375
97989.070312 32172.654297 66382.148438
98139.062500 32120.351563 66028.070312
98181.843750 32078.414063 64608.339844
98328.109375 32079.630859 64844.035156
98491.273438 32100.705078 64633.390625
98594.406250 32114.296875 64920.539062
98337.843750 32083.849609 65112.382813
98376.132812 32091.890625 65435.500000
98696.515625 32127.177734 65546.234375
98646.101562 32121.539062 65232.851562
98436.273438 32103.533203 65770.093750
98266.648438 32156.220703 66586.734375
98601.296875 32141.960938 66467.429688
98307.750000 32124.750000 66312.968750
109550.015625 50651.648438 54261.832031
109663.679688 50739.746094 54521.414062
97072.531250 32859.042969 62804.730469
96996.765625 32770.742188 63117.558594
97287.203125 32645.953125 62904.292969
97054.992188 32596.927734 63401.429688
97282.445312 32513.103516 63234.300781
97260.914062 32422.695313 63551.902344
96692.390625 32787.683594 63774.300781
96560.867188 32831.207031 64111.859375
96881.882812 32563.173828 64078.570313
96672.250000 32685.181641 64381.734375
96921.398438 32481.029297 64482.898438
96670.703125 32673.392578 64761.058594
96833.351562 32547.570312 65116.605469
96699.398438 32701.214844 65444.378906
97005.351562 32452.294922 65412.460938
96946.007812 32538.753906 65711.257812
96709.179688 32761.541016 65820.867188
96954.609375 32599.976562 66040.710938
96720.429688 32914.273438 66465.726562
96898.414062 32828.433594 66734.937500
96980.390625 32668.919922 66412.929688
97218.453125 32456.429688 66228.414062
97241.390625 32496.939453 66500.671875
97157.507812 32618.843750 66737.570312
97072.609375 32771.902344 67018.250000
97375.523438 32563.937500 67028.695312
97625.054688 32903.636719 62026.175781
97362.828125 32979.613281 62216.847656
97589.039062 32737.238281 62343.507812
97880.039062 32690.224609 62147.386719
97874.101562 32533.396484 62482.476563
97280.781250 32832.878906 62554.468750
97574.226562 32575.640625 62689.531250
97571.351562 32326.498047 63401.808594
97584.664062 32430.808594 63048.191406
97863.562500 32196.677734 63621.664062
97522.312500 32265.015625 63734.476562
97171.226562 32315.986328 64597.910156
97241.414062 32315.166016 64266.886719
75747.375000 55637.074219 50432.531250
97303.390625 32250.404297 64857.289062
106358.718750 49935.125000 46297.300781
106522.953125 50036.285156 46516.238281
97313.835938 32280.591797 65422.687500
97472.585938 32194.128906 65149.542969
97141.085938 32343.162109 65131.886719
97784.210938 32164.103516 65848.328125
97442.406250 32260.207031 65729.375000
97462.265625 32352.273438 66402.984375
97428.835938 32435.761719 66692.843750
103393.320312 50903.277344 34864.015625
103226.531250 50622.480469 34795.523438
97227.320312 32748.779297 67286.820312
97372.281250 32767.482422 67541.593750
97451.929688 32617.666016 67326.101562
98487.023438 32678.978516 61824.648438
98176.468750 32673.675781 61972.820313
98475.796875 32546.250000 62138.753906
98173.023438 32526.882813 62295.371094
97894.164062 32391.416016 62839.761719
98235.085938 32284.457031 62973.117188
98189.781250 32394.339844 62632.953125
97952.335938 32264.302734 63237.957031
98227.265625 32169.777344 63536.718750
98315.945312 32211.826172 63257.925781
98136.226562 32128.259766 63877.839844
97701.960938 32284.433594 66570.148438
97698.320312 32237.046875 66316.468750
97679.968750 32368.134766 66884.429688
97972.523438 32233.146484 66728.242188
97675.484375 32469.273438 67210.421875
97657.382812 32607.228516 67525.320312
97973.226562 32443.562500 67409.718750
97952.859375 32641.714844 67806.101562
102525.125000 50050.390625 34032.371094
76216.453125 55251.371094 50686.453125
76003.343750 55167.906250 50361.250000
98784.609375 32584.134766 62014.437500
98481.609375 32425.910156 62458.375000
98779.593750 32385.558594 62615.468750
98771.437500 32476.968750 62316.917969
98512.437500 32325.197266 62780.664062
98563.703125 32249.826172 63099.519531
98882.656250 32271.371094 63227.160156
98830.914062 32320.548828 62914.523438
98602.882812 32195.390625 63447.062500
98814.382812 32196.443359 63736.589844
98916.929688 32239.203125 63494.468750
98398.898438 32111.736328 64118.613281
98721.062500 32159.605469 64044.074219
98486.281250 32144.656250 63790.542969
98949.335938 32202.125000 64297.757812
99034.273438 32235.861328 63978.628906
98353.195312 32091.464844 64395.574219
98628.898438 32129.779297 64357.726562
98245.445312 32211.496094 66890.859375
98529.734375 32218.130859 67013.312500
98478.406250 32164.189453 66748.546875
98273.703125 32302.884766 67219.445312
98351.765625 32450.445312 67609.914062
98699.109375 32409.076172 67592.890625
98600.718750 32310.222656 67327.984375
105886.406250 42160.339844 69177.195312
98659.625000 32549.882812 67866.359375
99095.273438 32638.484375 61926.937500
99057.117188 32542.488281 62207.082031
99308.179688 32617.568359 62127.433594
101089.859375 50159.046875 32329.044922
98011.835938 50429.640625 31309.121094
99547.187500 32582.640625 62567.707031
99315.789062 32551.320312 62381.515625
99278.671875 32470.507812 62674.773438
99207.851562 32387.521484 63024.203125
99162.343750 32319.376953 63389.683594
99442.859375 32424.570312 63309.160156
99398.296875 32379.144531 63606.210938
99111.695312 32274.810547 63683.519531
99332.242188 32333.253906 63907.386719
99267.460938 32296.626953 64216.093750
98843.046875 32168.507812 64657.402344
99124.164062 32233.365234 64823.589844
99190.578125 32261.689453 64538.488281
99535.890625 32376.328125 64453.277344
98905.914062 32175.466797 65017.972656
99257.757812 32260.306641 65115.667969
98956.492188 32179.337891 65341.968750
99250.265625 32244.277344 65500.937500
98973.796875 32175.529297 65628.398438
99177.000000 32218.056641 65894.179688
98980.312500 32192.019531 66538.992188
98886.570312 32162.044922 66192.109375
98751.539062 32186.125000 66790.453125
98841.898438 32255.896484 67102.062500
99173.351562 32331.333984 67184.796875
99080.710938 32245.623047 66865.156250
98922.039062 32355.591797 67410.984375
98966.242188 32488.857422 67714.742188
99282.906250 32613.310547 67830.343750
99251.273438 32455.949219 67508.296875
96766.953125 50801.265625 31335.628906
99973.710938 32772.148438 62651.636719
99770.031250 32687.085938 62518.726562
99751.296875 32631.898438 62758.406250
99960.851562 32712.212891 62954.417969
99715.187500 32572.419922 63021.527344
99706.734375 32515.886719 63509.636719
99618.406250 32448.328125 63835.914062
99896.265625 32575.835938 63794.511719
99807.734375 32510.171875 64060.621094
96180.429688 92964.468750 40194.367188
99552.257812 32400.960938 64126.140625
99737.742188 32462.664062 64280.128906
84975.546875 58282.257812 66601.453125
99536.882812 32306.349609 66091.023438
99556.992188 32321.998047 65705.476562
93164.539062 95420.007812 38818.085938
93386.203125 95326.750000 38907.605469
99315.687500 32265.210938 66618.109375
99640.406250 32358.240234 66662.984375
99519.351562 32302.980469 66400.468750
99416.882812 32333.460938 66932.179688
99519.492188 32440.582031 67254.843750
99872.343750 32559.572266 67281.890625
99752.367188 32440.322266 66975.523438
94932.921875 50809.707031 31352.853516
95191.203125 50838.421875 31351.876953
100028.718750 32673.501953 63528.800781
100132.859375 32694.763672 63786.859375
100063.343750 32630.587891 64030.476562
99960.789062 32556.449219 64286.417969
100241.734375 32686.734375 64279.539062
100324.906250 32771.652344 63966.195312
100577.695312 32859.664062 64229.527344
100303.835938 32640.074219 64884.152344
100079.632812 32578.140625 64593.148438
100027.882812 32526.337891 64904.644531
99756.875000 32436.298828 64760.675781
99836.718750 32439.746094 65113.453125
99930.578125 32449.968750 65507.984375
100329.460938 32593.183594 65500.250000
100153.953125 32552.175781 65181.523438
99866.164062 32410.025391 65928.507812
100196.335938 32525.923828 65822.187500
100119.007812 32491.341797 66126.312500
99965.765625 32467.505859 66698.640625
100226.078125 32563.435547 66763.562500
100233.328125 32539.533203 66448.320312
100210.890625 32669.277344 67268.085938
100370.984375 32650.763672 66982.281250
100070.617188 32550.000000 66997.000000
100488.062500 32632.251953 65777.085938
100444.492188 32605.355469 66110.937500
100755.843750 32715.568359 65926.914062
100474.023438 32640.535156 66690.367188
100540.984375 32642.042969 66422.281250
94815.179688 50551.160156 31353.982422
75372.875000 55735.621094 44409.003906
96781.242188 33308.750000 62632.777344
96604.476562 33321.507812 62937.476562
96848.625000 33051.117188 62874.382813
90970.304688 50216.730469 31350.335938
96695.742188 33040.363281 63192.210938
96816.726562 32786.035156 63442.601562
96558.664062 33025.640625 63522.503906
96444.320312 33029.191406 63843.609375
96197.000000 33250.734375 64317.875000
96416.335938 32945.781250 64480.488281
96353.765625 33060.667969 64133.457031
96233.710938 33171.917969 65075.660156
96398.632812 32954.984375 64915.312500
96175.335938 33253.031250 64734.988281
96585.257812 32762.529297 65111.570312
96283.742188 33197.906250 65623.609375
96402.570312 32986.148438 65303.519531
96200.320312 33249.390625 65313.179688
96504.976562 32927.031250 65627.390625
96482.593750 33029.800781 65951.789062
96331.601562 33367.300781 66480.062500
96470.289062 33277.566406 66733.484375
96519.171875 33134.632812 66484.562500
96727.289062 32824.238281 66157.546875
96562.093750 33016.535156 66256.421875
90629.468750 50348.203125 31344.966797
96669.710938 33053.605469 66739.500000
96608.835938 33218.468750 66995.109375
96830.078125 32988.378906 67010.976562
96963.820312 33291.468750 62362.328125
97006.171875 33059.710938 62594.382812
97148.734375 33071.855469 62365.878906
89189.156250 50539.351562 60012.441406
96996.429688 32936.089844 67276.078125
96771.203125 33170.507812 67282.835938
96973.804688 33093.906250 67541.000000
96746.789062 33387.523438 67612.718750
96997.351562 33229.468750 67792.953125
97177.945312 33254.265625 68043.804688
97465.328125 33045.832031 68068.281250
97233.843750 33002.093750 67763.234375
97928.531250 33194.011719 61285.046875
97677.835938 33246.066406 61489.820312
97916.921875 33022.871094 61557.410156
97477.289062 33282.535156 61683.042969
97413.437500 33151.816406 61926.785156
97660.382812 33070.699219 61745.375000
76555.992188 54198.156250 44414.386719
76748.382812 54442.921875 44441.242188
97151.546875 32899.093750 67488.312500
97773.656250 32879.929688 68088.867188
97567.765625 32808.035156 67809.398438
84298.226562 50040.425781 36074.609375
84508.156250 50255.921875 35865.675781
98489.187500 33124.820312 60882.636719
98200.960938 33148.312500 61085.078125
98506.148438 32971.160156 61193.312500
98189.093750 32828.335938 61667.695312
98506.554688 32821.457031 61509.628906
98199.101562 32987.562500 61374.148438
98304.062500 32885.390625 68313.101562
98059.382812 32792.546875 68126.203125
97963.882812 33006.433594 68347.070312
110827.015625 73235.960938 62978.730469
110915.078125 73020.093750 62890.761719
97782.789062 33297.894531 68545.468750
98225.757812 33203.539062 68610.250000
111004.539062 72808.039062 62978.476562
99085.968750 32920.179688 61110.687500
99110.281250 33029.027344 60843.441406
98807.476562 32985.796875 61003.804688
98818.585938 32704.017578 61703.296875
110972.882812 72869.031250 62658.343750
110844.625000 73178.101562 62696.398438
98974.250000 32667.736328 68025.070312
98643.992188 32759.214844 68189.125000
98979.320312 32901.371094 68335.179688
98631.187500 33346.074219 68771.976562
98626.531250 33026.175781 68495.609375
99735.468750 33198.140625 60707.320312
99432.726562 33095.105469 60760.281250
99669.609375 33079.750000 60992.980469
98877.851562 32842.285156 61349.066406
99268.843750 32861.667969 61333.546875
99166.476562 32749.804688 61630.339844
110996.851562 48141.343750 60642.871094
99413.070312 32716.220703 61895.425781
99553.359375 32747.863281 67932.937500
99303.687500 32811.554688 68135.765625
99678.257812 32964.632812 68186.882812
99344.859375 33379.050781 68716.312500
99721.031250 33270.214844 68516.820312
99337.093750 33070.878906 68434.289062
98986.562500 33189.734375 68626.257812
87916.468750 55050.539062 67227.414062
87749.718750 55226.242188 67225.382812
87843.523438 55302.460937 67439.265625
100111.828125 33147.820312 61505.140625
99894.671875 33100.003906 61240.875000
99819.125000 32970.855469 61551.257812
99505.406250 32833.789062 61592.964844
99736.039062 32842.574219 61871.761719
99628.640625 32699.511719 62235.621094
99913.906250 32793.425781 62398.824219
110468.757812 49656.140625 57727.875000
110602.421875 49844.429688 58071.847656
99936.187500 33128.359375 68296.578125
100025.921875 32993.351562 68076.953125
110437.062500 49863.847656 57469.792969
100041.679688 33019.351562 61824.160156
100325.867188 33220.882812 61779.789062
91532.328125 48787.179688 65985.062500
100453.078125 33016.453125 63054.312500
100466.179688 33100.460938 62721.949219
100212.476562 32891.195312 62840.949219
100194.726562 32812.902344 63222.296875
99881.648438 32628.642578 63245.460938
100338.023438 32836.585938 63607.062500
110871.210938 73095.359375 62391.484375
110002.265625 49309.796875 56496.925781
100364.632812 32814.726562 67535.070312
100540.632812 32770.914062 67244.343750
100023.976562 32715.628906 67564.156250
100187.117188 32888.316406 67814.289062
99853.445312 32809.457031 67867.046875
100162.164062 33149.125000 68238.187500
100430.648438 33285.734375 68313.859375
100328.703125 33066.195312 68047.953125
110089.398438 49824.425781 56382.148437
110014.750000 49928.246094 56079.492188
109988.492188 49597.031250 56240.914062
100765.531250 33423.019531 62324.746094
100988.500000 33524.613281 62581.035156
100726.734375 33318.917969 62644.839844
100948.945312 33420.238281 62891.347656
100876.007812 33208.003906 63485.320313
100670.796875 33124.878906 63261.472656
100627.148438 33027.914062 63551.511719
100588.031250 32936.804688 63861.503906
100759.531250 32884.937500 64560.429688
100867.843750 32986.886719 64314.199219
100495.265625 32684.513672 65188.101562
100630.257812 32778.882812 64868.355469
100839.664062 32822.175781 65157.316406
100950.289062 32916.460938 64839.402344
100507.343750 32972.101562 67793.632812
100798.390625 33041.277344 67790.101562
100699.531250 32909.105469 67528.968750
100655.507812 33144.199219 68040.984375
100822.359375 33344.378906 68286.804688
101043.718750 33189.101562 67988.953125
100836.304688 33107.437500 63767.238281
101087.382812 33270.542969 63713.613281
101369.968750 33210.710938 64327.863281
101301.492188 33292.714844 63986.363281
101080.125000 33123.160156 64193.203125
101097.335938 33041.523438 64531.097656
101218.203125 33023.554688 64819.625000
101157.609375 32948.703125 65087.632812
100720.093750 32733.410156 65533.390625
101088.289062 32872.503906 65415.683594
101052.820312 32819.230469 65764.703125
100774.898438 32712.728516 66269.109375
101075.406250 32799.871094 66449.257812
101058.085938 32796.554688 66107.695312
100774.226562 32727.115234 66601.062500
100691.257812 32745.207031 66931.140625
101089.171875 32837.503906 66849.367188
100897.921875 32866.910156 67226.054688
101285.429688 32944.867188 67222.492188
101080.140625 33015.953125 67585.984375
101341.250000 33138.101562 67806.031250
102011.023438 33297.695312 64630.976562
101777.554688 33184.535156 64837.550781
102136.554688 33236.308594 64884.636719
101449.703125 33063.312500 64981.699219
101403.750000 32984.308594 65305.550781
101710.437500 33081.593750 65190.539062
101663.906250 33005.121094 65519.156250
101360.320312 32918.753906 65635.976562
101336.460938 32875.289062 65957.117188
101619.875000 32946.644531 65838.289062
101573.875000 32910.390625 66103.914062
101352.156250 32860.320312 66267.000000
101403.726562 32875.070312 66593.109375
101743.625000 32931.210938 66687.726562
101662.367188 32913.390625 66364.468750
101497.429688 32921.605469 66924.179688
101657.140625 32993.585938 67223.054688
101799.460938 32964.113281 66967.468750
109085.734375 49336.238281 53691.906250
101972.453125 33152.972656 65096.277344
102236.984375 33168.421875 65170.136719
102006.859375 33081.984375 65412.800781
102315.257812 33112.941406 65423.460938
101889.796875 33006.992188 65723.664062
101896.679688 32963.531250 66063.687500
102001.968750 32955.457031 66440.843750
101997.500000 33016.054688 67180.765625
102280.757812 33019.457031 67099.921875
102092.039062 32976.613281 66821.335938
101863.218750 33086.546875 67517.320312
102275.890625 33091.484375 67458.382812
102079.304688 33227.855469 67876.914062
102463.765625 33195.941406 67804.640625
110733.414062 73450.593750 62784.816406
102353.195312 32982.792969 66518.210938
102461.679688 33001.742188 66854.164062
102685.023438 33001.093750 66593.242188
102568.023438 33046.414062 67188.539062
102930.210938 33077.898438 67272.328125
102791.476562 33024.558594 66918.382812
102659.992188 33116.167969 67528.328125
102777.992188 33211.839844 67824.546875
103087.718750 33234.363281 67812.429688
102932.593750 33144.386719 67593.710938
103359.968750 33162.320312 65539.648438
103115.609375 33219.312500 65219.835938
102941.882812 33131.082031 65532.933594
102580.296875 33112.777344 65511.460938
102709.515625 33054.816406 65859.820312
102972.492188 33034.984375 66137.718750
103268.000000 33060.835938 66106.976562
103121.804688 33083.566406 65844.687500
103218.906250 33040.304688 66411.750000
102994.507812 33020.660156 66662.382812
103266.085938 33046.531250 66724.773438
103108.500000 33048.339844 66958.070312
103242.078125 33092.277344 67208.343750
103544.726562 33160.468750 67332.789062
103418.671875 33084.210938 66973.671875
103427.562500 33251.847656 67729.867188
103196.671875 33146.910156 67496.859375
104205.781250 33203.941406 66178.695312
104084.945312 33215.152344 65813.742188
103824.648438 33143.554688 66040.585938
103544.960938 33084.933594 66248.257812
103582.273438 33086.156250 66634.773438
103887.015625 33132.429688 66389.320312
103968.328125 33151.343750 66716.820312
103936.039062 33214.105469 67271.835938
104060.773438 33192.917969 66991.085938
103754.406250 33136.406250 66986.375000
109104.250000 49669.402344 53576.062500
96208.000000 33689.617188 63290.078125
96070.695312 33776.273438 63537.500000
96204.515625 33502.062500 63584.484375
106239.929688 49718.382812 46176.996094
106120.554688 49506.683594 46036.941406
96222.945312 33313.171875 63928.566406
96067.585938 33495.085938 64162.839844
96028.164062 33505.847656 64470.773438
95883.585938 33780.562500 64589.886719
95877.828125 33783.289062 64937.164063
95992.507812 33549.886719 64768.625000
96054.164062 33459.921875 65091.722656
96390.273438 33211.351562 66227.554688
96255.281250 33319.015625 65966.578125
96227.187500 33431.902344 66231.023438
104193.773438 49973.113281 41624.917969
96963.437500 33534.101562 62100.187500
96954.734375 33815.671875 61822.234375
96741.296875 33839.328125 62134.792969
77831.632812 54400.023438 44507.156250
96753.867188 33567.871094 62384.921875
96564.179688 33591.843750 62680.000000
96382.632812 33623.328125 62990.296875
96199.140625 33924.011719 63037.886719
96418.375000 33341.984375 63298.613281
96357.593750 33232.847656 63627.855469
96430.328125 33411.636719 66949.054688
96293.484375 33511.765625 66741.468750
96514.343750 33452.816406 67244.054688
96324.125000 33724.621094 67278.296875
96475.828125 33683.445312 67549.187500
96653.804688 33687.722656 67872.671875
96843.140625 33745.070312 68184.726562
96909.328125 33462.613281 67970.882812
97435.968750 33748.578125 61153.878906
97183.687500 33787.992188 61498.003906
97441.781250 33492.816406 61473.242188
97172.875000 33243.164062 62124.460938
104041.523438 49797.085938 39079.812500
103596.195312 49004.468750 38685.585938
103748.101562 49322.890625 38446.722656
76198.843750 54888.898437 44433.019531
97086.796875 33880.281250 68519.195312
97110.687500 33531.988281 68269.585938
97684.843750 33436.378906 61222.839844
97721.859375 33597.996094 60930.339844
97952.500000 33497.488281 60762.312500
97790.703125 33741.675781 60592.156250
97522.546875 33500.539062 68580.312500
97726.093750 33603.355469 68755.804688
97302.523438 33586.914062 68492.945312
97431.242188 33745.296875 68688.671875
97940.187500 33358.382812 61011.781250
98192.679688 33311.167969 60796.199219
97973.023438 33760.242188 60246.687500
98143.460938 33509.996094 60484.730469
98214.171875 33602.203125 60182.847656
98001.640625 33460.492188 68766.109375
98302.351562 33539.109375 68880.468750
104154.476562 50067.957031 38369.988281
104044.539062 49840.515625 38497.574219
97999.593750 33736.437500 68930.867188
98799.843750 33129.832031 60683.281250
98469.218750 33284.921875 60570.652344
103699.984375 49449.414062 37733.003906
103827.375000 49548.460938 38103.566406
98656.070312 33707.855469 68996.632812
103032.546875 49943.648438 35074.140625
103230.945312 50054.246094 35421.042969
102529.835938 49781.187500 34250.429688
95856.210938 49591.519531 31345.498047
96315.976562 49746.707031 31340.376953
99001.218750 33525.789062 68876.890625
99353.726562 33714.121094 68940.242188
99963.398438 33225.617188 60938.441406
91824.968750 48118.718750 65940.882812
91770.234375 48039.964844 65635.671875
100091.906250 33305.175781 68442.375000
99989.429688 33530.210938 68675.640625
99661.687500 33582.410156 68796.109375
99911.843750 33799.421875 68881.289062
100060.273438 33429.507812 60361.074219
100183.390625 33275.410156 61192.015625
100393.093750 33342.347656 61462.054687
100474.562500 33462.230469 61148.441406
100779.882812 33643.777344 61137.777344
100573.617188 33583.152344 60806.199219
100600.609375 33426.816406 61734.949219
100503.640625 33705.562500 68705.500000
100645.078125 33525.570312 68526.421875
100314.742188 33510.902344 68581.062500
100599.070312 33680.761719 60275.382813
100767.125000 33718.382812 60542.285156
100670.328125 33532.074219 61427.125000
100919.804688 33689.148438 61405.035156
100874.125000 33620.335938 61682.906250
100815.195312 33525.328125 62002.601562
101035.648438 33624.261719 62263.203125
101177.843750 33400.636719 68296.703125
100980.445312 33560.382812 68510.171875
101123.562500 33742.613281 68662.070312
100819.875000 33788.300781 68722.039062
93209.671875 49589.371094 31363.187500
92820.460938 49487.582031 31363.974609
101092.976562 33717.539062 61938.371094
101311.312500 33802.542969 62192.769531
101373.039062 33885.730469 61886.437500
101543.976562 33937.730469 62110.296875
101578.718750 33889.644531 62422.031250
101263.750000 33711.589844 62511.253906
101486.367188 33772.121094 62750.394531
101444.914062 33667.460938 63055.496094
101211.953125 33607.242188 62824.917969
101172.804688 33499.531250 63129.367188
101367.429688 33432.890625 63665.238281
101410.851562 33555.378906 63361.226562
101134.578125 33386.746094 63427.109375
101381.593750 33805.589844 68692.937500
101287.039062 33599.777344 68518.578125
101500.906250 33469.882812 68347.601562
101734.820312 33893.582031 62695.460938
101990.132812 33720.054688 63493.058594
102006.828125 33842.558594 63153.179688
101702.687500 33706.914062 63273.707031
101668.171875 33586.027344 63589.089844
101616.695312 33457.304688 63893.785156
91803.382812 48747.386719 31367.820312
92148.015625 48970.089844 31366.945312
101541.570312 33656.019531 68551.671875
101733.195312 33864.402344 68716.585938
101790.968750 33573.910156 68443.828125
102276.382812 33690.113281 63739.515625
102364.539062 33847.222656 63358.929687
101933.476562 33584.257812 63821.554688
102092.335938 33406.871094 64371.230469
102504.148438 33255.738281 64958.140625
102312.773438 33345.949219 64631.011719
102611.601562 33296.699219 68033.093750
102303.343750 33838.777344 68695.554688
102582.320312 33719.527344 68581.789062
102322.140625 33623.628906 68495.218750
102133.320312 33453.417969 68279.742188
102542.351562 33468.210938 68298.601562
103067.445312 33928.820312 63293.812500
102766.750000 33900.097656 63344.906250
103037.351562 33808.636719 63612.828125
103176.226562 33697.308594 63904.183594
102885.656250 33671.902344 63946.273438
102538.562500 33619.835938 64007.957031
102437.492188 33476.765625 64330.175781
102795.367188 33529.984375 64278.992188
102677.554688 33388.851562 64615.882812
102757.453125 33193.000000 65232.777344
102904.109375 33296.886719 64918.937500
102884.125000 33865.761719 68692.960938
103222.164062 33741.796875 68551.070312
102879.328125 33600.335938 68437.617188
102903.648438 33370.035156 68120.835938
103669.039062 33831.617188 63511.843750
103343.054688 33883.335938 63401.941406
103397.078125 33766.363281 63720.074219
103135.132812 33581.046875 64189.667969
103442.171875 33642.566406 64044.460938
103089.632812 33430.335938 64568.562500
103429.296875 33512.582031 64381.226562
103262.695312 33319.312500 64909.187500
103463.304688 33254.089844 65182.773438
103275.773438 33371.328125 68053.421875
103147.085938 33513.164062 68304.054688
103452.921875 33553.988281 68293.828125
104342.703125 33674.554688 63987.453125
104294.257812 33746.578125 63736.531250
104061.992188 33682.285156 63940.253906
103700.031250 33452.175781 64586.636719
103590.484375 33347.656250 64887.582031
103924.632812 33394.906250 64839.945312
103796.500000 33299.562500 65141.898438
103670.437500 33223.109375 65399.164062
103819.328125 33292.187500 67648.289062
103625.500000 33400.968750 67996.375000
104851.484375 33768.843750 63696.136719
104535.648438 33794.578125 63566.023437
104567.476562 33717.875000 63858.027344
104794.539062 33697.585938 63979.687500
104575.609375 33635.753906 64175.734375
104209.070312 33600.015625 64223.269531
104420.867188 33541.609375 64492.816406
104142.273438 33354.531250 65111.394531
104011.148438 33263.617188 65443.832031
104316.421875 33332.800781 65343.890625
104338.992188 33290.746094 65617.562500
104381.296875 33262.335938 65901.750000
104584.679688 33293.171875 66126.765625
104670.750000 33344.632812 65761.085938
104474.187500 33257.316406 66451.320312
104656.726562 33312.265625 66689.156250
104329.492188 33236.796875 66792.203125
104301.968750 33282.949219 67196.242188
