1230
35215.476562 42691.605469 51659.828125
35157.722656 42965.933594 51846.117188
35562.441406 42601.964844 51607.546875
35422.757812 42856.960938 51783.105469
35718.839844 42886.058594 51805.101562
35464.765625 43135.550781 51973.046875
35856.898438 43162.492188 51990.980469
36237.585938 43235.074219 52026.285156
37039.890625 43142.148438 51916.109375
36750.324219 42906.484375 51779.769531
36634.574219 43197.281250 51978.937500
37096.250000 42808.335938 51695.269531
37457.316406 43249.078125 51957.515625
37324.453125 42982.187500 51796.738281
37899.523438 43165.945312 51888.339844
38607.535156 43121.941406 51873.222656
38270.175781 43232.890625 51922.800781
39375.738281 43142.359375 51964.953125
39645.277344 43174.820312 52027.921875
39975.339844 43207.121094 52109.773437
40313.628906 43265.562500 52210.789062
40625.136719 43341.792969 52314.062500
40903.589844 43443.675781 52420.378906
41149.785156 43256.769531 52442.984375
41158.687500 43566.867188 52530.410156
41410.738281 43390.992188 52564.269531
41376.328125 43106.449219 52477.617188
41520.941406 42826.242188 52456.609375
41178.867188 42894.640625 52355.394531
64940.308594 43969.691406 50346.566406
64945.855469 44019.730469 50656.863281
65042.589844 44265.382812 50540.562500
41857.144531 42875.781250 52592.570313
41636.550781 43146.113281 52579.210938
41711.375000 43465.964844 52689.085938
42610.179688 43218.054688 52988.878906
42415.382812 43522.667969 52985.968750
42752.183594 43497.605469 53129.855469
42931.960938 43198.785156 53129.761719
43125.976562 43503.066406 53299.597656
43241.148438 43131.753906 53253.355469
43517.925781 42986.503906 53339.265625
43491.914062 43314.289062 53409.488281
44081.117188 43227.480469 53612.558594
65075.046875 44383.550781 50798.972656
44409.984375 43312.867188 53731.597656
45955.183594 43249.691406 54064.937500
46772.105469 42842.054688 54175.761719
46563.457031 43062.246094 54158.265625
46819.542969 43177.523438 54236.246094
47122.417969 43295.253906 54346.132812
47902.687500 43390.109375 54889.191406
47996.621094 43129.453125 54916.746094
48055.671875 43312.906250 55080.417969
48007.523438 43565.953125 55107.652344
48151.980469 43079.851562 55164.386719
48165.687500 43375.183594 55356.054688
27568.048828 43263.062500 47655.289062
27833.531250 43429.164062 47938.882812
28037.460937 43596.605469 48212.867188
28326.335938 43435.960938 48213.156250
28353.738281 43615.664062 48418.746094
28614.912109 43570.722656 48542.406250
28806.580078 43630.183594 48751.226562
29112.701172 43413.507812 48771.601562
29389.179688 43455.863281 49085.230469
29747.630859 43680.750000 49667.390625
29513.667969 43631.406250 49388.484375
30058.371094 43585.566406 49884.468750
30322.962891 43522.125000 50071.351562
30147.615234 43743.398438 50103.542969
30589.787109 43495.015625 50276.226562
30872.279297 43480.261719 50490.132812
31164.962891 43481.636719 50707.914062
31730.511719 43647.890625 51187.066406
32399.455078 43224.265625 51263.265625
32071.869141 43424.792969 51231.789062
32342.876953 43591.605469 51492.222656
32745.552734 43286.769531 51471.019531
32707.136719 43685.250000 51741.507812
33082.140625 43439.734375 51726.042969
33464.683594 43548.398438 51944.539062
33050.003906 43822.148438 51994.472656
33863.800781 43446.304688 51987.789062
34108.679688 43619.921875 52163.242188
35079.910156 43534.988281 52221.421875
35415.304688 43648.613281 52305.058594
35342.910156 43398.523438 52145.851562
35110.375000 43248.476562 52035.105469
35648.554688 43415.832031 52159.906250
35954.605469 43413.539062 52154.464844
59103.644531 45392.160156 55388.089844
36488.667969 43489.007812 52174.023438
65130.519531 44506.890625 50324.609375
65051.007812 44262.140625 50185.757812
36720.710938 43757.722656 52318.156250
36857.484375 43448.957031 52122.535156
37095.203125 43691.890625 52249.000000
37175.777344 43424.085938 52083.679688
37737.292969 43468.617188 52071.367188
38127.363281 43530.906250 52087.835937
38570.429688 43686.042969 52160.894531
38462.503906 43396.378906 52012.136719
38987.121094 43567.503906 52117.363281
38732.714844 43400.402344 52022.183594
39382.984375 43428.363281 52093.250000
39740.574219 43420.863281 52145.039062
40402.558594 43525.714844 52316.390625
40054.484375 43555.597656 52254.183594
40658.882812 43672.128906 52423.007812
40935.835938 43694.289062 52501.062500
40833.035156 43963.140625 52556.191406
41440.300781 43781.628906 52681.707031
41780.835938 43723.371094 52781.242188
41957.570312 43832.035156 52876.687500
42047.730469 43546.191406 52837.617187
43800.777344 43457.253906 53564.058594
44135.031250 43575.621094 53701.914062
44766.183594 43402.906250 53843.890625
44485.511719 43681.500000 53824.343750
46458.171875 43701.878906 54227.703125
46523.765625 43352.449219 54191.234375
46198.960938 43477.175781 54145.066406
46831.589844 43562.371094 54296.988281
47192.039062 43616.753906 54431.792969
47492.296875 43677.187500 54611.664062
47684.910156 43404.136719 54679.125000
47785.281250 43708.914062 54869.578125
27475.531250 43803.828125 48142.218750
27767.226563 43838.066406 48314.261719
27724.474609 43648.421875 48098.878906
27779.798828 44065.042969 48557.015625
28096.058594 43865.898438 48527.289062
28460.648437 43809.812500 48697.375000
28726.062500 43895.476562 48975.898438
29047.572266 43691.789062 49015.687500
65070.648437 44313.914062 49833.984375
65125.003906 44480.695312 50062.437500
29426.066406 43900.304688 49562.562500
29602.908203 44042.960938 49856.347656
29907.855469 43871.386719 49990.105469
30624.576172 43755.566406 50508.906250
30914.718750 43756.804688 50726.796875
31202.744141 43749.121094 50922.921875
31436.285156 43757.476562 51081.289062
31278.595703 43945.718750 51102.242188
31822.513672 43955.750000 51447.066406
31782.982422 44224.855469 51600.429688
32024.076172 44121.269531 51680.296875
32015.546875 43695.316406 51386.382813
32111.923828 43865.625000 51557.929687
32357.148438 43967.960938 51766.332031
32456.585938 44208.921875 51991.652344
32687.474609 44007.851562 51969.480469
33412.964844 43913.230469 52189.753906
33762.644531 43738.070312 52167.871094
34009.468750 43870.125000 52314.441406
33731.847656 44045.105469 52367.703125
34367.914062 43845.917969 52354.324219
34707.945312 43952.023438 52459.277344
35078.691406 43869.898438 52431.136719
35486.191406 43946.480469 52488.527344
36560.367188 44120.437500 52539.460937
36103.996094 44056.652344 52536.621094
37761.128906 43807.457031 52258.257813
37434.441406 43591.582031 52162.933594
37373.902344 43905.523438 52345.027344
38187.078125 43958.871094 52307.039062
38955.996094 43927.671875 52277.652344
38569.042969 44015.300781 52317.164062
39264.851562 43728.367188 52208.328125
39634.398438 43722.242188 52246.300781
39952.632812 43945.351562 52374.871094
40324.457031 43788.574219 52385.648438
40287.136719 44084.781250 52476.925781
40541.042969 43943.164062 52480.152344
41105.214844 43820.039062 52586.886719
41741.195312 43985.218750 52840.214844
41981.531250 44044.597656 52947.089844
65034.800781 44209.632812 49482.378906
42226.593750 43864.164062 52998.238281
42156.414062 44218.382812 53070.839844
42446.417969 44105.851562 53163.593750
42575.308594 43795.046875 53133.078125
42864.953125 43753.878906 53252.234375
43480.035156 43682.363281 53493.414063
43831.613281 43826.617188 53654.230469
43509.105469 44053.695312 53591.402344
44829.972656 43770.707031 53929.335938
35950.843750 62920.554688 41146.761719
45488.042969 43671.816406 54050.468750
45416.246094 44092.820312 54112.160156
45776.382812 43960.503906 54151.050781
46122.820312 43829.261719 54185.789062
46380.597656 44045.453125 54264.699219
45869.476562 43592.914062 54105.359375
46699.074219 43934.894531 54318.386719
46986.246094 43855.429688 54392.453125
64937.550781 43907.648438 48834.511719
47251.328125 43950.554688 54533.910156
47557.187500 44021.398438 54754.117188
47957.460938 43831.421875 55120.296875
47817.597656 44061.101562 55013.609375
48006.421875 44052.468750 55283.453125
48109.058594 43754.390625 55377.496094
48129.566406 44013.046875 55564.613281
27546.169922 44208.015625 48590.691406
65127.964844 44592.089844 48057.062500
28378.869141 44094.957031 48947.078125
28671.326172 44166.921875 49218.031250
28973.800781 43966.414062 49236.210938
28941.099609 44226.296875 49470.406250
29174.115234 44024.308594 49455.457031
29256.640625 43779.464844 49288.851562
29250.552734 44235.792969 49723.414062
29480.888672 44371.664062 50036.218750
30101.384766 43987.828125 50258.812500
29800.087891 44190.089844 50157.847656
30043.640625 44343.304688 50483.234375
30403.734375 44306.925781 50735.914062
30363.716797 44027.953125 50506.429688
30681.521484 44280.183594 50917.480469
30978.962891 44061.812500 50977.203125
30660.833984 44028.878906 50733.281250
31516.427734 43952.191406 51256.242188
31391.912109 44431.718750 51481.839844
31566.257812 44201.347656 51446.863281
32192.693359 44295.421875 51899.390625
32687.337891 44273.804688 52153.992188
65092.300781 44075.093750 46627.425781
65089.613281 44228.488281 46947.542969
65133.808594 44366.171875 46714.554688
32902.019531 44093.113281 52132.863281
33135.937500 44074.996094 52212.203125
32983.433594 44296.128906 52299.410156
33363.843750 44259.957031 52406.332031
33777.605469 44382.207031 52593.593750
34136.218750 44378.117188 52659.949219
34080.882812 44119.230469 52487.500000
34463.632812 44212.062500 52597.480469
35554.746094 44225.519531 52656.285156
35775.101562 44048.750000 52547.347656
37329.800781 44226.441406 52522.039063
37688.371094 44376.156250 52560.875000
37603.628906 44086.398438 52420.218750
37857.312500 44107.335938 52406.984375
38051.867188 44306.164062 52488.261719
38401.722656 44268.906250 52442.742188
59138.910156 62786.898438 52649.851562
58897.789062 62848.449219 52804.046875
58860.988281 62715.429688 52567.531250
38773.000000 44249.589844 52418.785156
39191.671875 44270.855469 52430.101562
39388.273438 43979.429688 52321.578125
39647.632812 44246.488281 52449.054687
40026.187500 44235.265625 52487.953125
40560.921875 44204.992188 52570.570312
40849.683594 44313.910156 52671.320312
41142.531250 44086.531250 52678.582031
41459.375000 44197.433594 52808.433594
41809.531250 44332.042969 52969.375000
36412.316406 64082.636719 42208.644531
36316.500000 64303.453125 42454.761719
36083.125000 64201.117187 42206.804688
42758.406250 44043.515625 53284.972656
42609.582031 44351.785156 53305.648438
43503.132812 44392.695312 53665.914062
43871.570312 44244.507812 53752.640625
43733.386719 44577.828125 53777.152344
44087.601562 44629.847656 53889.730469
44190.628906 43948.515625 53791.765625
44241.460938 44279.304688 53869.046875
45092.113281 44215.558594 54070.828125
45011.656250 44487.320312 54102.078125
46062.132812 44193.488281 54235.957031
45697.570312 44393.593750 54213.515625
46048.429688 44550.531250 54297.453125
46344.746094 44377.734375 54316.867188
46599.652344 44220.406250 54342.863281
46928.550781 44211.937500 54450.000000
47296.886719 44326.644531 54659.339844
47632.015625 44407.777344 54929.914062
65200.800781 44307.050781 46058.683594
65160.960938 44358.234375 46429.089844
65225.046875 44678.089844 46252.738281
47892.976562 44336.187500 55200.671875
27730.777344 44288.339844 48770.109375
27918.626953 44361.414062 48951.453125
28041.531250 44138.800781 48783.558594
28015.482422 44531.167969 49194.675781
28143.994141 44299.609375 49016.238281
28358.000000 44361.605469 49214.582031
28628.812500 44441.300781 49469.656250
28567.341797 44747.796875 49747.253906
28907.773437 44762.867188 49968.257812
28917.576172 44500.750000 49723.000000
29180.833984 44558.343750 49963.375000
29367.730469 44665.195312 50201.691406
29668.224609 44519.570312 50317.046875
29510.179688 44786.101562 50415.371094
29806.183594 44754.429688 50609.226562
30175.205078 44623.527344 50784.054688
64642.480469 44126.113281 52511.925781
64646.542969 44301.042969 52758.066406
64793.351563 44381.070312 52505.269531
30503.507812 44551.921875 50969.097656
31386.095703 44710.929688 51657.261719
31612.623047 44434.632812 51628.171875
31881.966797 44423.027344 51794.718750
32072.837891 44552.183594 51998.265625
32382.560547 44504.144531 52142.210938
32744.683594 44547.820312 52350.453125
33098.203125 44546.472656 52496.929688
33434.925781 44576.769531 52628.015625
34002.523438 44631.207031 52793.277344
34354.074219 44555.785156 52798.691406
34581.664062 44783.785156 52963.023438
34712.472656 44479.156250 52784.824219
35066.210938 44436.980469 52777.570312
34878.312500 44182.804688 52613.597656
35351.335938 44401.261719 52761.898438
35235.964844 44173.589844 52622.601562
61799.363281 44168.085938 54572.777344
61845.972656 44368.042969 54606.828125
62053.730469 44250.609375 54547.144531
35292.296875 44680.582031 52931.187500
35609.242188 44500.710938 52818.941406
35637.308594 44798.132812 52998.601563
35950.035156 44610.621094 52870.210938
36238.644531 44376.746094 52713.664063
35872.113281 44300.148438 52691.574219
37006.828125 44018.222656 52441.398438
36951.972656 44398.707031 52656.277344
36576.960938 44462.281250 52732.648437
36362.925781 44728.296875 52907.187500
35834.121094 62920.070312 52340.878906
36070.148438 62600.824219 52434.265625
35745.960938 62644.097656 52607.367187
37343.390625 44559.121094 52696.550781
38253.761719 44561.316406 52593.554688
38621.941406 44544.996094 52558.093750
39237.007812 44585.964844 52561.117188
39873.824219 44796.535156 52677.136719
39587.203125 44627.765625 52591.003906
39624.523438 44981.621094 52733.148437
39941.312500 44508.710938 52576.984375
40268.832031 44387.234375 52578.425781
40549.746094 44530.808594 52677.570312
40846.695312 44653.730469 52779.703125
41150.601562 44432.757812 52786.695312
41457.476562 44560.492188 52917.460938
41145.375000 44773.992188 52891.835938
41744.000000 44730.261719 53065.710938
42104.324219 44594.011719 53161.472656
42352.808594 44385.871094 53203.296875
42725.558594 44587.085938 53418.902344
42438.726562 44674.246094 53321.613281
42692.761719 44889.804688 53480.292969
35492.453125 62937.687500 52548.781250
42955.121094 44694.828125 53536.691406
43212.523438 44529.792969 53594.824219
43456.671875 44717.484375 53717.769531
44421.933594 44847.648438 54020.175781
44481.792969 44481.949219 53971.027344
45076.234375 45263.949219 54249.566406
45200.863281 45000.324219 54231.390625
44923.667969 44996.441406 54170.800781
45109.339844 44737.382812 54166.500000
46639.980469 44518.308594 54417.910156
46995.359375 44670.554688 54586.746094
65255.527344 52292.546875 49001.613281
65279.355469 52098.746094 48830.332031
65354.863281 52044.144531 49087.414062
47365.593750 44698.746094 54797.023438
47604.441406 44759.214844 54997.281250
47806.187500 44643.976562 55181.945312
41342.496094 49502.464844 18853.914062
47963.742188 44537.589844 55380.277344
48055.421875 44564.464844 55626.437500
48046.664062 44298.179688 55474.535156
61358.636719 44595.320312 54698.609375
61590.390625 44636.519531 54686.261719
61565.832031 44365.691406 54642.132812
48134.332031 44266.851562 55825.277344
48023.074219 44540.937500 56838.828125
48081.226562 44366.539062 56573.375000
48062.363281 44665.109375 56514.632812
48007.828125 44296.539062 57072.597656
47994.734375 44555.445312 57123.628906
60544.835938 44425.148438 54736.371094
60367.808594 44273.738281 54744.761719
27720.191406 44763.339844 49304.878906
59388.503906 44350.562500 55036.117188
59593.425781 44483.757812 54964.882812
59589.664062 44227.125000 54931.953125
28295.298828 44621.414062 49452.222656
28005.421875 44757.257812 49441.085938
28184.417969 44870.730469 49665.714844
28360.431641 44990.273438 49890.957031
28658.904297 45014.550781 50076.898438
28965.564453 44936.816406 50172.796875
29131.888672 44780.886719 50130.960938
35685.457031 62953.835938 41154.949219
35524.296875 63189.687500 41281.875000
29216.925781 44951.230469 50351.437500
29488.546875 45031.765625 50601.976562
29759.734375 45082.425781 50813.125000
30007.195312 44900.746094 50853.046875
30298.867188 44897.335938 51046.984375
30551.113281 45039.132812 51301.269531
31658.152344 44630.929688 51787.394531
31577.683594 44881.609375 51896.394531
31839.171875 44711.960938 51957.621094
32082.533203 44836.671875 52180.699219
32467.322266 44835.812500 52386.621094
32869.847656 44859.500000 52588.308594
33208.046875 44764.464844 52668.066406
33468.718750 44848.210938 52799.851562
42102.937500 48402.867188 53948.136719
41784.054688 48459.429688 53909.527344
41900.582031 48773.277344 53967.953125
33700.929688 44674.585938 52758.656250
37326.921875 44872.015625 52867.089844
37072.679688 44701.800781 52808.394531
36975.542969 44977.437500 52976.617188
37687.722656 44764.449219 52760.253906
37865.847656 45074.785156 52897.699219
38071.675781 44834.777344 52747.738281
38933.515625 44863.691406 52688.269531
38947.449219 44498.203125 52524.230469
38454.023438 44853.316406 52717.019531
39339.222656 44841.328125 52669.035156
39984.257812 45098.746094 52801.234375
58540.988281 44384.425781 55842.851563
40212.273438 44749.722656 52698.660156
40548.433594 44861.343750 52788.375000
40845.644531 44996.117188 52891.863281
41154.320312 45100.175781 52998.757812
41433.457031 44893.812500 53011.812500
41666.785156 45014.750000 53124.492188
41984.492188 44988.105469 53230.835938
42223.531250 44835.375000 53278.542969
42355.898438 45080.722656 53397.183594
43365.695312 45098.972656 53761.394531
43191.734375 44811.757812 53648.789062
44432.199219 45194.972656 54083.160156
44657.339844 45003.511719 54108.296875
46037.625000 44881.886719 54357.531250
45803.640625 44727.257812 54290.570312
46332.976562 44723.664062 54383.140625
46629.894531 44891.796875 54497.515625
57538.867188 44611.218750 57219.554688
57559.609375 44736.546875 57225.164063
48706.593750 44526.921875 58575.851562
48702.738281 44659.847656 58569.250000
48571.601562 44310.535156 58403.464844
48542.597656 44616.585938 58354.171875
47936.808594 44830.894531 55452.667969
47996.746094 45072.582031 55683.507812
48047.859375 44811.039062 55721.867188
48065.843750 44952.824219 55937.769531
48099.613281 44633.375000 55925.945313
48082.500000 44802.085938 56212.781250
48054.203125 45143.667969 56179.093750
48040.585938 45016.414062 56475.863281
48017.468750 44861.226562 56733.367188
48001.250000 44879.476562 57033.503906
35385.847656 62954.707031 41139.703125
27472.378906 45187.859375 49718.105469
27744.687500 45239.988281 49897.109375
27805.460938 44987.500000 49614.667969
28067.378906 45105.257812 49877.878906
27988.667969 45342.574219 50124.367188
28255.601562 45446.734375 50351.816406
28581.742187 45289.246094 50325.148438
28319.408203 45198.855469 50105.031250
28897.212891 45144.933594 50339.359375
32827.292969 49733.156250 14915.173828
35253.460938 63149.531250 41237.394531
29143.082031 45284.808594 50603.433594
29493.445312 45325.218750 50826.957031
48329.804688 44312.285156 58050.984375
29759.447266 45330.816406 50981.468750
30003.423828 45156.531250 51016.707031
30251.636719 45269.156250 51245.117188
31541.478516 45207.789062 52074.765625
48345.699219 44709.664062 58051.515625
31777.804687 44958.968750 52075.156250
31864.486328 45168.707031 52252.285156
32194.244141 45151.195312 52426.652344
32546.675781 45149.855469 52606.429688
32865.183594 45201.019531 52781.675781
33172.781250 45015.476562 52798.605469
33155.812500 45317.988281 52963.910156
33473.953125 45137.441406 52968.046875
34011.617188 45423.621094 53275.089844
34361.796875 45421.609375 53329.429688
48119.816406 44406.667969 56234.347656
34700.304688 45263.949219 53271.570312
34464.062500 45084.687500 53137.933594
35093.050781 45242.003906 53278.156250
34809.398438 45004.890625 53118.710938
35365.472656 44981.953125 53119.875000
35096.058594 44927.242188 53083.023438
35632.218750 45043.347656 53152.031250
35977.730469 44978.882812 53090.203125
65462.710938 44289.054688 43128.804688
65408.125000 43904.496094 43346.933594
65464.519531 44225.890625 43507.726562
36385.703125 45075.179688 53110.980469
65334.527344 43760.359375 42603.113281
65340.042969 43624.406250 43032.597656
65397.707031 43947.082031 42967.160156
36639.492188 44926.097656 52992.625000
36764.121094 44697.324219 52845.066406
65419.996094 44167.273438 42724.109375
37312.210938 45172.023438 53035.070312
37010.597656 45308.746094 53161.070312
65273.027344 43897.628906 41632.171875
65327.167969 44053.339844 41909.093750
38226.148438 45177.875000 52902.347656
61496.976562 65141.863281 55727.132812
38623.027344 45144.023438 52840.003906
38944.375000 45309.796875 52887.984375
39282.218750 45500.753906 52948.933594
39297.292969 45145.191406 52797.269531
65329.125000 44173.148438 41652.152344
40859.343750 45398.894531 53031.429688
40543.695312 45178.386719 52896.406250
41219.757812 45352.437500 53097.085938
41186.437500 45613.796875 53173.851562
41728.343750 45278.367188 53226.332031
42052.390625 45375.417969 53365.707031
42387.222656 45511.906250 53516.359375
42699.960938 45270.527344 53570.500000
42988.968750 45027.250000 53621.589844
43043.714844 45394.238281 53714.562500
43758.511719 45329.636719 53921.839844
43750.632812 44902.464844 53842.730469
45252.039062 45536.261719 54332.449219
45547.308594 45524.753906 54388.972656
45438.351562 45211.855469 54313.390625
45771.261719 45341.375000 54396.636719
45752.683594 45018.781250 54334.667969
46067.250000 45406.031250 54464.074219
45985.039062 45153.167969 54399.230469
46363.042969 45452.195312 54543.085937
46290.093750 45109.082031 54452.988281
46614.375000 45242.691406 54570.472656
46857.468750 45364.851562 54690.906250
46905.457031 45073.574219 54640.125000
47176.500000 44961.613281 54745.644531
47154.808594 45295.070312 54822.691406
47439.097656 45057.128906 54946.964844
47720.343750 44976.585938 55188.449219
47601.277344 45355.398438 55175.914062
47850.847656 45196.179688 55431.445312
47949.710938 45382.644531 55674.882813
48030.250000 45256.097656 55913.738281
48034.507812 45420.003906 56118.929688
48027.152344 45408.558594 56415.617188
48011.312500 45230.230469 56802.343750
67058.539062 52416.925781 55967.949219
65001.382812 44068.660156 47892.074219
64913.468750 43748.589844 47924.015625
64952.703125 43924.464844 48215.359375
27215.552734 45372.714844 49856.414062
27479.029297 45363.425781 49943.640625
27657.779297 45462.210938 50135.972656
27540.728516 45666.058594 50338.078125
27885.855469 45614.597656 50398.636719
28208.880859 45692.890625 50593.128906
28546.888672 45552.609375 50574.429688
28879.935547 45563.398438 50717.671875
28809.648438 45368.898438 50510.964844
29212.548828 45589.429688 50884.203125
29589.632813 45622.425781 51088.851562
65056.664062 44305.355469 48211.843750
29939.947266 45463.906250 51173.902344
31217.179688 45408.152344 51981.265625
35166.171875 62913.402344 52761.511719
31425.773438 45547.093750 52199.117188
65038.789062 44161.164062 47519.339844
31675.988281 45421.816406 52284.125000
31934.082031 45455.183594 52451.570312
32288.205078 45491.621094 52663.386719
32614.197266 45399.132812 52778.828125
32542.824219 45678.726562 52895.210938
32848.519531 45505.320312 52944.039062
33452.707031 45448.203125 53141.714844
33131.281250 45636.613281 53133.664062
33748.898438 45576.886719 53303.066406
34062.273438 45676.171875 53429.757812
34407.449219 45773.500000 53538.015625
34777.109375 45559.878906 53454.347656
35131.488281 45555.269531 53470.332031
35423.230469 45441.871094 53400.296875
35448.972656 45195.074219 53252.058594
50906.121094 37944.238281 56284.199219
50639.714844 37942.652344 56100.621094
35776.925781 45626.371094 53486.824219
35733.523438 45269.703125 53284.246094
36145.378906 45689.496094 53490.546875
36137.277344 45358.031250 53303.363281
36446.160156 45594.351562 53403.308594
36484.117188 45325.148438 53247.652344
36784.390625 45818.304688 53473.867188
36741.195312 45462.496094 53290.046875
37318.519531 45494.375000 53213.113281
36706.058594 45173.882812 53129.429688
37676.105469 45330.433594 53063.582031
38054.214844 45533.585938 53110.855469
37956.789062 45281.039062 52992.773438
38547.753906 45516.109375 53028.871094
38969.753906 45682.808594 53055.355469
39646.707031 45359.539062 52885.226562
39979.789062 45421.070312 52921.312500
40246.628906 45308.628906 52901.988281
40480.906250 45447.839844 52982.203125
41463.406250 45465.339844 53200.484375
41749.656250 45639.125000 53339.636719
42091.539062 45738.179688 53473.839844
42733.269531 45698.539062 53673.148438
43382.351562 45511.375000 53843.750000
44102.000000 45055.667969 53970.304688
44154.851562 45417.964844 54047.707031
64961.847656 43876.210938 47661.546875
44507.820312 45567.843750 54164.707031
34830.941406 62868.257812 52973.894531
44737.695312 45923.339844 54279.562500
44904.773438 45567.191406 54261.117188
44748.890625 45266.757812 54174.882813
46684.867188 45864.207031 54744.164062
46965.042969 45647.859375 54814.746094
46647.527344 45554.195312 54656.167969
47323.781250 45607.519531 55014.011719
47388.000000 45332.074219 54980.023437
47595.835938 45752.890625 55274.695312
47803.316406 45546.019531 55461.152344
47919.558594 45656.652344 55691.816406
47998.843750 45554.199219 55906.906250
48018.636719 45720.585938 56182.121094
48024.050781 45717.578125 56457.207031
48026.042969 45606.671875 56725.054688
27821.765625 46050.640625 50839.183594
27942.527344 45834.484375 50654.222656
64968.046875 43808.832031 47333.445312
28431.902344 45776.261719 50746.000000
28908.341797 45838.953125 50956.847656
28663.166016 45737.546875 50786.125000
29257.132812 45883.488281 51122.910156
29594.056641 45999.617188 51349.398438
29849.509766 45739.218750 51299.859375
29934.134766 45934.023438 51472.457031
30166.744141 45653.699219 51429.058594
65096.578125 44362.511719 47227.585938
30192.396484 45995.453125 51658.292969
30433.404297 45752.503906 51656.968750
31632.068359 45738.332031 52425.578125
31347.734375 45805.214844 52290.707031
31966.898437 45776.921875 52638.203125
32241.699219 45862.671875 52835.171875
32803.820312 45834.160156 53102.875000
33104.515625 45977.738281 53308.574219
33434.582031 46095.058594 53490.976562
33436.707031 45765.894531 53316.105469
33755.617188 45881.378906 53473.382812
34086.378906 45987.421875 53602.046875
34738.691406 45905.082031 53643.671875
35011.976562 45762.207031 53584.875000
35352.937500 45780.097656 53592.246094
35655.496094 45939.375000 53662.722656
35978.265625 45950.136719 53641.890625
36379.292969 45955.738281 53600.738281
37250.800781 45869.636719 53423.031250
37019.148438 45587.816406 53315.304688
37996.230469 45916.132812 53316.402344
39053.214844 45981.863281 53181.832031
39298.636719 45825.355469 53088.097656
65136.718750 44105.906250 46307.777344
65084.402344 43833.589844 46357.832031
40206.074219 45641.562500 53022.589844
40355.843750 45915.238281 53135.781250
40635.496094 45995.238281 53194.726562
40569.691406 45700.316406 53084.441406
40921.992188 46093.078125 53270.589844
40899.640625 45792.523438 53170.011719
41227.992188 45946.273438 53288.121094
41444.867188 45723.988281 53275.332031
41580.847656 45953.878906 53379.058594
41862.261719 45932.500000 53452.531250
42382.035156 45882.753906 53599.554687
65209.898438 43740.421875 45515.718750
65158.675781 43777.679688 45844.296875
65212.535156 44049.480469 45759.093750
42627.664062 46077.996094 53714.382812
42899.339844 45979.402344 53779.621094
43100.683594 45747.699219 53800.062500
43156.902344 46054.925781 53871.332031
43399.394531 45840.335938 53907.285156
43711.824219 45965.132812 54017.765625
44060.898438 45928.480469 54108.027344
43920.414062 45664.351562 54026.195312
45104.132812 45839.062500 54351.335938
45001.839844 46099.796875 54371.324219
45279.855469 46093.644531 54431.957031
46144.835938 45912.652344 54586.246094
46161.921875 45648.835938 54534.289062
46403.855469 45748.339844 54620.914062
46421.722656 46059.496094 54696.335938
46927.558594 45959.851562 54868.519531
47140.820312 45877.710938 54960.289062
47364.632812 45975.164062 55128.738281
47956.722656 45865.300781 55877.769531
48005.308594 46079.031250 56112.308594
48036.054688 45969.652344 56382.511719
48036.417969 45869.687500 56621.308594
27483.849609 46133.394531 50840.199219
27678.271484 46298.449219 51043.847656
28029.062500 46220.902344 51044.910156
35087.820312 62965.703125 41132.546875
28785.193359 46072.738281 51100.824219
29011.205078 46053.675781 51155.878906
28885.314453 46288.019531 51294.445312
29220.960938 46169.769531 51315.253906
29439.261719 46351.613281 51523.187500
29845.527344 46258.179688 51639.613281
30216.962891 46323.402344 51872.839844
30532.199219 46395.417969 52090.859375
31168.687500 45701.621094 52120.824219
31161.935547 45940.363281 52244.074219
31370.154297 46093.320312 52445.765625
31722.742188 46068.292969 52643.000000
31993.238281 46054.378906 52793.609375
32187.000000 46184.347656 52968.960938
32483.158203 46009.269531 53040.152344
32734.042969 46226.398438 53275.500000
33106.277344 46332.355469 53490.843750
33769.761719 46201.699219 53640.480469
33452.460938 46431.339844 53659.953125
34107.964844 46308.476562 53761.750000
34446.515625 46427.496094 53862.519531
34422.468750 46100.714844 53710.210938
34758.460938 46227.066406 53800.570312
35104.984375 46363.632812 53872.445312
35061.359375 46025.804688 53718.882812
35405.019531 46140.195312 53769.484375
65289.691406 43836.667969 45116.113281
36147.902344 46295.199219 53787.300781
36476.511719 46255.937500 53733.445312
36673.246094 46116.386719 53641.183594
36740.058594 46393.488281 53756.109375
36985.351562 46168.132812 53614.500000
37359.355469 46264.312500 53596.433594
37650.472656 46063.964844 53451.191406
37993.843750 46284.042969 53493.976562
38606.441406 46313.984375 53399.343750
38318.476562 46377.902344 53479.074219
38968.500000 46265.332031 53320.722656
39342.253906 46175.761719 53238.449219
39692.324219 46242.503906 53245.394531
40008.636719 46378.109375 53292.894531
40008.476562 46003.515625 53150.367188
64896.101562 56364.230469 51676.910156
64723.183594 56518.242188 51533.289062
40374.261719 46228.156250 53250.644531
40697.996094 46235.289062 53282.730469
40923.242188 46366.347656 53355.878906
41138.363281 46217.851562 53349.214844
41405.695312 46225.792969 53409.554688
41774.289062 46257.164062 53507.843750
42524.332031 46406.183594 53743.730469
42891.429688 46305.578125 53833.632812
43948.695312 46215.835938 54122.906250
44213.316406 46134.398438 54181.128906
44478.378906 46196.355469 54258.710937
44367.933594 45907.007812 54184.949219
45420.410156 46376.101562 54508.949219
45907.042969 46067.187500 54560.097656
46136.851562 46229.019531 54648.019531
46415.269531 46390.851562 54762.164063
46735.843750 46213.234375 54843.406250
47094.535156 46190.750000 55007.148437
47596.535156 46104.074219 55349.632812
47379.812500 46310.476562 55207.980469
47752.476562 46240.121094 55549.781250
47805.875000 45917.332031 55568.332031
25435.628906 60516.316406 40993.476562
47904.613281 46234.902344 55813.628906
48006.843750 46400.203125 56083.457031
48053.015625 46261.445312 56324.785156
48089.406250 46172.175781 56640.812500
51744.621094 61126.210938 53034.800781
51873.851562 61216.230469 52743.101562
27540.306641 46506.265625 51204.367188
27881.632812 46521.972656 51269.437500
28272.154297 46380.460938 51226.117187
59784.152344 44087.425781 54850.019531
59968.960938 44171.691406 54810.449219
59976.769531 43960.378906 54784.761719
28579.259766 46491.429688 51371.593750
28893.849609 46585.625000 51509.695312
29135.109375 46414.089844 51457.839844
29236.779297 46658.203125 51655.316406
29921.652344 46594.265625 51882.714844
30250.427734 46657.304688 52080.265625
30576.917969 46707.203125 52276.195312
31033.486328 46190.394531 52287.546875
30824.830078 46460.101562 52294.585938
30851.623047 46731.906250 52438.492188
31175.460937 46540.144531 52537.503906
31848.150391 46383.960938 52867.800781
32152.755859 46517.394531 53112.425781
32403.001953 46295.566406 53145.472656
32463.537109 46563.277344 53307.765625
32797.941406 46604.761719 53490.640625
33142.441406 46682.667969 53666.578125
33490.203125 46772.171875 53817.042969
33797.230469 46530.039062 53796.691406
34139.511719 46635.628906 53908.335938
34475.972656 46762.785156 54003.945312
34787.730469 46566.613281 53948.718750
35128.863281 46712.636719 54018.113281
35498.640625 46526.652344 53934.046875
35868.722656 46508.054688 53905.996094
35758.292969 46224.687500 53790.691406
36140.175781 46653.835938 53940.953125
36443.460938 46523.367188 53852.511719
36752.347656 46744.726562 53898.273437
37668.394531 46354.296875 53585.093750
37504.714844 46583.371094 53711.113281
37846.957031 46584.898438 53652.015625
37106.335938 46556.589844 53765.917969
38177.375000 46590.117188 53594.914063
64736.546875 43994.093750 51989.089844
64795.742188 44219.988281 52214.066406
64879.128906 44223.968750 51889.710938
38501.371094 46595.820312 53539.437500
38845.621094 46581.859375 53475.082031
39275.960938 46579.878906 53413.605469
39694.355469 46565.828125 53371.980469
39499.484375 46392.078125 53315.683594
40001.855469 46651.375000 53391.160156
40288.515625 46575.750000 53366.917969
40628.871094 46491.812500 53359.863281
40936.296875 46703.144531 53458.171875
41197.691406 46458.226562 53430.031250
41498.464844 46527.628906 53507.632812
41817.566406 46653.687500 53605.910156
42093.824219 46788.671875 53696.871094
43244.500000 46343.128906 53943.906250
43421.695312 46110.058594 53958.671875
43605.960938 46353.089844 54048.957031
43893.910156 46496.363281 54150.238281
44026.582031 46789.914062 54226.800781
44207.882812 46432.613281 54224.515625
44548.378906 46504.296875 54323.121094
44787.968750 46279.468750 54348.726562
44864.304688 46594.468750 54414.890625
45197.980469 46652.183594 54502.714844
45092.046875 46351.492188 54431.890625
46122.210938 46556.234375 54705.734375
45800.105469 46390.320312 54595.699219
45855.636719 46746.550781 54669.925781
46672.046875 46568.328125 54886.707031
46918.109375 46451.507812 54968.906250
46916.394531 46736.234375 55019.496094
47157.660156 46537.335938 55106.988281
64681.234375 43798.605469 51798.937500
64592.226562 43770.488281 52057.878906
47409.804688 46629.031250 55281.648437
47601.593750 46420.421875 55409.234375
47779.621094 46511.109375 55630.457031
47924.464844 46601.125000 55873.242188
48023.148438 46668.164062 56085.066406
27560.837891 46728.039062 51381.832031
27854.021484 46841.695312 51499.855469
64891.371094 43931.988281 50901.667969
64843.687500 43772.804688 50643.726562
28238.693359 46708.812500 51463.636719
28606.673828 46778.933594 51576.839844
28918.234375 46878.988281 51708.562500
29225.994141 46970.996094 51847.125000
29537.478516 47007.875000 51970.375000
29917.667969 46947.222656 52084.082031
30313.392578 46982.488281 52280.148438
31001.619141 46925.136719 52608.273438
31266.515625 46869.917969 52737.613281
64138.679687 44210.839844 53465.882812
63952.644531 43989.621094 53484.585938
31472.371094 47052.078125 52943.328125
31520.343750 46674.750000 52804.656250
31826.679688 46831.195312 53062.906250
32188.951172 46865.894531 53295.726562
32521.777344 46898.710938 53490.871094
32852.402344 46951.695312 53665.425781
33189.660156 47028.566406 53822.566406
34178.175781 46962.156250 54042.753906
33840.578125 46865.910156 53942.125000
34486.402344 47092.421875 54131.773438
35144.308594 46990.667969 54129.210938
35427.269531 46902.855469 54089.519531
64326.683594 44635.355469 53617.324219
35660.277344 47151.542969 54175.023438
35813.914062 46833.765625 54040.898438
36176.433594 46959.089844 54056.906250
36410.855469 46794.843750 53966.031250
36550.917969 47092.808594 54060.613281
37044.957031 46817.937500 53882.703125
37346.914062 46936.500000 53877.058594
37746.453125 47102.390625 53870.195313
37699.183594 46817.589844 53771.519531
38361.343750 46814.031250 53651.703125
39293.000000 46977.617188 53560.601563
39547.968750 46835.832031 53481.605469
39846.863281 46872.476562 53473.398438
40172.402344 46861.062500 53460.703125
40536.472656 46843.980469 53464.109375
41265.375000 46716.839844 53510.035156
41522.785156 46868.316406 53591.449219
41876.718750 47049.718750 53696.585938
42247.437500 47055.808594 53780.160156
42395.988281 46742.859375 53765.660156
43059.769531 46936.238281 53978.917969
42756.074219 46677.867188 53854.550781
42631.968750 47074.945312 53880.871094
43348.445312 46648.980469 54020.117188
43057.125000 46584.304688 53926.679687
44342.140625 46707.964844 54299.363281
44608.507812 46820.117188 54383.347656
44958.019531 46955.886719 54489.742188
45539.250000 46682.085938 54585.433594
45325.535156 46949.468750 54577.753906
46126.410156 46872.289062 54761.105469
46377.121094 47037.144531 54863.203125
46393.398438 46718.441406 54815.074219
58341.363281 25546.615234 26453.939453
46646.449219 46889.015625 54932.773438
46895.953125 47061.414062 55059.718750
47197.269531 46894.324219 55184.839844
47454.308594 46884.199219 55346.148438
47619.882812 46718.640625 55469.289062
47795.726562 46831.265625 55681.847656
47968.160156 46938.632812 55941.652344
48108.289062 46855.179688 56255.796875
48077.093750 46543.789062 56284.937500
27554.943359 47007.730469 51568.500000
63527.859375 43772.160156 53717.539062
63734.945312 43993.988281 53697.859375
63766.253906 43737.578125 53472.000000
27596.886719 47338.722656 51758.335938
27972.292969 47294.382812 51784.125000
27810.308594 47095.980469 51653.859375
63492.953125 44010.562500 53904.351563
28094.203125 47018.308594 51643.906250
28322.835938 47233.351562 51802.074219
28377.964844 46957.601562 51649.703125
28609.263672 47310.156250 51894.929687
28626.349609 47061.546875 51757.285156
28925.599609 47213.792969 51909.070312
29298.101562 47250.562500 52029.363281
29652.376953 47275.199219 52157.527344
30050.984375 47323.707031 52331.925781
30881.441406 47230.578125 52675.113281
31690.732422 47120.300781 53110.101562
31914.300781 47209.628906 53285.480469
32270.222656 47198.355469 53485.476562
32591.546875 47233.710938 53661.117188
32911.804688 47282.957031 53815.976562
33540.007812 47125.023438 53963.601562
33230.050781 47377.906250 53960.562500
33902.597656 47210.054688 54081.078125
34218.867188 47251.277344 54154.640625
34866.109375 47480.363281 54302.835938
35207.503906 47474.554688 54310.468750
35544.589844 47442.722656 54291.511719
35332.695312 47195.527344 54205.214844
36479.734375 47452.281250 54207.363281
36209.144531 47256.855469 54167.078125
36961.054688 47042.746094 53981.296875
37188.964844 47264.406250 54026.855469
37258.367188 47612.207031 54142.316406
37501.003906 47323.945312 53994.683594
38712.316406 47272.718750 53754.148438
38996.378906 47403.093750 53748.777344
39640.093750 47169.238281 53587.542969
39280.023438 47314.222656 53676.535156
40032.109375 47135.625000 53550.566406
40320.015625 47076.886719 53527.070312
40567.250000 47182.019531 53561.101563
40816.234375 47013.570312 53530.644531
41159.851562 47038.402344 53573.667969
41516.402344 47239.722656 53668.824219
41838.410156 47441.964844 53759.558594
42106.746094 47309.730469 53788.992188
42391.867188 47359.875000 53861.507812
43259.015625 47264.414062 54077.902344
43450.761719 46972.308594 54093.933594
43606.726562 47294.312500 54176.914062
43751.093750 46991.839844 54179.406250
43989.957031 47213.335938 54270.613281
44320.117188 47005.710938 54333.042969
44335.207031 47357.894531 54379.851563
44627.988281 47160.015625 54433.218750
44640.195312 47501.585938 54477.750000
44924.964844 47325.671875 54531.148438
46108.265625 47182.796875 54806.226562
46626.070312 47204.570312 54973.253906
46858.726562 47382.980469 55084.281250
34487.335938 62835.625000 53162.750000
47125.378906 47250.789062 55187.902344
47389.964844 47147.800781 55329.742188
47616.847656 47021.152344 55496.589844
47586.484375 47352.046875 55489.589844
47803.105469 47174.582031 55696.917969
47989.671875 47309.718750 55917.984375
48089.015625 47120.765625 56120.218750
48164.671875 47380.414062 56176.433594
28430.455078 47521.535156 51971.332031
28157.121094 47478.562500 51905.414062
27869.734375 47614.507812 51929.457031
28745.492188 47520.371094 52031.972656
29067.759766 47499.785156 52096.925781
29721.402344 47590.089844 52335.425781
29393.261719 47531.792969 52202.800781
30020.380859 47702.914062 52493.972656
30324.599609 47528.070312 52539.972656
30801.101563 47491.675781 52747.984375
31290.949219 47324.578125 52951.890625
31042.191406 47426.738281 52850.746094
31230.185547 47603.859375 53041.437500
31159.501953 47140.789062 52792.355469
31552.330078 47390.335938 53142.570313
31805.441406 47605.667969 53386.605469
32080.230469 47472.046875 53491.503906
32073.064453 47828.832031 53619.898438
32354.847656 47530.105469 53656.734375
32679.832031 47556.042969 53816.269531
32964.734375 47560.964844 53932.257812
33199.808594 47758.621094 54076.468750
33593.156250 47521.261719 54113.949219
60857.371094 44190.972656 54683.507812
61031.550781 44012.859375 54641.585938
60740.644531 43993.320312 54669.429688
34032.707031 47567.734375 54229.957031
35950.281250 47121.953125 54142.613281
35902.414062 47409.179688 54255.898438
36198.398438 47521.128906 54269.582031
37651.855469 47640.726562 54080.746094
37803.808594 47392.347656 53964.753906
38792.843750 47666.109375 53867.394531
39200.234375 47643.414062 53790.117188
39562.085938 47557.949219 53714.453125
39934.828125 47462.523438 53651.914062
40280.226562 47349.039062 53604.812500
40571.726562 47498.992188 53643.093750
40863.289062 47301.941406 53607.703125
41185.289062 47439.562500 53666.902344
41513.289062 47617.113281 53740.878906
41833.359375 47807.476562 53819.792969
42175.589844 47639.738281 53855.414062
42525.328125 47652.332031 53933.640625
42661.113281 47410.968750 53935.046875
42829.027344 47632.093750 54006.367187
43127.773438 47561.246094 54077.093750
42927.312500 47316.382812 53993.242188
43333.128906 47774.554688 54154.660156
43383.726562 47504.273438 54140.304688
44078.414062 47575.527344 54334.777344
45154.699219 47788.996094 54645.878906
44927.691406 47645.851562 54570.429687
45544.007812 47507.847656 54708.714844
45783.222656 47681.109375 54791.058594
46087.042969 47527.820312 54851.417969
46369.433594 47364.132812 54910.464844
46615.488281 47489.917969 55008.175781
46817.320312 47748.355469 55111.148438
47068.222656 47538.730469 55189.207031
47322.250000 47473.019531 55314.167969
47529.554688 47705.558594 55454.949219
48074.835938 47666.656250 55948.566406
47814.218750 47574.011719 55685.742188
27530.548828 47660.597656 51906.183594
27678.355469 47906.988281 52033.734375
28197.093750 47731.765625 52033.960938
28552.767578 47856.128906 52154.531250
28910.248047 47983.207031 52287.777344
29160.474609 47764.191406 52248.875000
28888.613281 47722.839844 52163.761719
29464.314453 47818.156250 52356.937500
29748.337891 47893.882812 52479.023437
30283.246094 47857.050781 52668.363281
29993.603516 48019.714844 52620.363281
30578.019531 47670.316406 52718.808594
30888.791016 47756.765625 52917.093750
31140.041016 47901.058594 53122.574219
31466.210938 47817.835938 53275.773438
31751.373047 47926.632812 53484.035156
33744.457031 47782.246094 54243.480469
33497.835938 47838.835938 54197.011719
34313.828125 47836.433594 54371.394531
34480.753906 47456.812500 54260.488281
34695.351562 47780.171875 54398.203125
35052.113281 47756.550781 54412.312500
57729.679688 44216.441406 56903.031250
35427.230469 47775.140625 54420.683594
64815.496094 41676.300781 43501.511719
64702.867188 41394.855469 43476.445312
64771.285156 41560.566406 43811.667969
36378.386719 47780.667969 54346.546875
37830.453125 47942.992188 54151.269531
38135.035156 47967.261719 54096.160156
38378.585938 48209.015625 54119.843750
39100.800781 47993.167969 53907.250000
39480.949219 47917.128906 53824.882813
39851.820312 47818.351562 53754.382812
40595.316406 47793.808594 53711.011719
40872.621094 47644.292969 53686.105469
41188.589844 47812.562500 53742.406250
41516.402344 47980.597656 53804.796875
42124.277344 48014.957031 53899.320312
42388.453125 47892.476562 53934.324219
42693.980469 47966.785156 54012.410156
57622.507812 43882.613281 56918.496094
43036.386719 47870.593750 54086.519531
43581.785156 47950.792969 54237.441406
44126.257812 47906.394531 54379.839844
44421.750000 48028.750000 54471.429687
44374.878906 47699.058594 54427.523438
46408.996094 47747.640625 54975.003906
46612.484375 48081.527344 55075.863281
46946.105469 48156.933594 55192.234375
47203.679688 47837.410156 55277.078125
47240.640625 48182.050781 55304.472656
47737.625000 47931.113281 55587.593750
47934.613281 47859.878906 55753.574219
27526.472656 48159.578125 52114.640625
28987.281250 48289.671875 52435.449219
29230.351562 48046.250000 52391.988281
65267.000000 43363.667969 42763.269531
29313.029297 48345.515625 52539.011719
29526.318359 48098.496094 52495.296875
29763.507812 48138.800781 52586.703125
65094.667969 43647.421875 46087.679688
65147.968750 43953.250000 46068.734375
29624.919922 48363.039062 52636.203125
29920.796875 48319.691406 52720.078125
30228.246094 48194.699219 52791.429688
30555.693359 48009.238281 52860.902344
30484.423828 48377.171875 52988.972656
30871.560547 48180.570312 53099.531250
31238.542969 48145.062500 53285.921875
65122.117188 43504.097656 45792.054688
31538.044922 48160.316406 53458.507812
31867.806641 48230.585938 53659.800781
32195.404297 48146.175781 53792.113281
32464.808594 47902.402344 53835.289062
32698.646484 48106.035156 54002.347656
32827.746094 47830.214844 53966.101562
32988.269531 48093.832031 54110.156250
32784.804688 48380.152344 54122.058594
32569.746094 48655.296875 54122.164062
32899.054688 48706.031250 54269.054688
33319.300781 48083.187500 54220.835938
35771.746094 47956.054688 54473.617188
35472.691406 48149.160156 54559.074219
35856.230469 48392.367188 54628.613281
36123.238281 48050.906250 54479.675781
51205.625000 25419.906250 34837.375000
36260.074219 48337.984375 54572.453125
36465.167969 48128.226562 54468.058594
36612.562500 48469.742188 54573.066406
36691.949219 47937.816406 54361.585938
37279.007812 48242.503906 54369.160156
37477.078125 47937.230469 54219.558594
37667.230469 48251.441406 54291.335938
37182.808594 47930.464844 54273.339844
38018.148438 48234.710938 54209.207031
38205.199219 48465.347656 54240.132812
38479.664062 48549.804688 54199.023438
38729.082031 48073.437500 54002.695312
39017.777344 48386.632812 54030.730469
65281.632813 43577.593750 44907.300781
65222.019531 43491.820312 45207.179688
39788.519531 48203.488281 53856.097656
40165.929688 48325.835938 53844.824219
40841.320312 48031.839844 53764.937500
41212.804688 48181.179688 53811.355469
41817.718750 48163.117188 53871.492187
42406.566406 48188.417969 53976.085938
42409.144531 48479.937500 54010.726562
42708.539062 48373.675781 54060.476562
42956.003906 48154.441406 54095.414062
43064.796875 48430.308594 54148.121094
43280.652344 48132.937500 54174.714844
43423.570312 48517.175781 54243.414063
43577.964844 48237.300781 54260.976562
43872.042969 48147.453125 54331.589844
44946.007812 47936.332031 54606.570312
44670.570312 47824.628906 54520.589844
45727.429688 48359.042969 54854.097656
45752.339844 48031.019531 54825.433594
34760.421875 62993.937500 41135.007812
46720.304688 48339.839844 55133.277344
46891.652344 48465.457031 55195.242188
47128.929688 48441.183594 55271.960938
47436.187500 48418.031250 55394.472656
47479.648438 48055.695312 55419.546875
47925.640625 48123.734375 55703.476562
47709.207031 48254.531250 55543.597656
47933.765625 48416.980469 55666.546875
28770.947266 48504.046875 52474.339844
28477.431641 48579.777344 52443.679688
28703.746094 48778.800781 52568.382812
31555.000000 48484.042969 53594.542969
31826.210938 48630.746094 53782.308594
31829.337891 48973.039062 53905.007812
32082.703125 48774.167969 53950.105469
57626.117187 42103.820312 55584.167969
57756.183594 42337.933594 55557.570312
65216.660156 43725.925781 41317.273438
65133.718750 43317.191406 41351.312500
32123.029297 48453.054688 53860.937500
32311.480469 48625.554688 54002.816406
32333.697266 48931.558594 54113.347656
34277.250000 48636.589844 54639.679687
34216.828125 49025.437500 54749.289062
34581.855469 48780.402344 54730.156250
34905.488281 48046.066406 54511.527344
34802.445312 48302.722656 54596.042969
