1146
539.052002 -180438.000000 211748.000000
-13526.400391 -178309.000000 212482.000000
-5064.040039 -169601.000000 212110.000000
-1256.569946 -181592.000000 212621.000000
-984.614014 -167556.000000 212862.000000
-3560.179932 -182497.000000 213616.000000
-13371.599609 -178211.000000 213194.000000
-4219.759766 -169547.000000 213437.000000
-10523.799805 -174987.000000 213801.000000
-1555.310059 -168151.000000 213559.000000
1973.989990 -179076.000000 214408.000000
1675.900024 -179181.000000 214458.000000
-8339.849609 -173037.000000 214871.000000
2347.699951 -178680.000000 215247.000000
-990.539978 -180446.000000 215975.000000
-9347.480469 -175071.000000 215995.000000
-9227.950195 -174899.000000 215856.000000
-6640.419922 -171676.000000 215460.000000
-3616.360107 -182682.000000 216101.000000
4058.129883 -177999.000000 216197.000000
-780.359009 -169189.000000 216020.000000
-956.533997 -169074.000000 215779.000000
3566.919922 -177572.000000 216781.000000
-6737.109863 -173923.000000 216811.000000
208.149002 -170094.000000 217154.000000
-11.005000 -169885.000000 216937.000000
-2257.219971 -181311.000000 217218.000000
4003.810059 -177180.000000 217212.000000
893.901978 -169901.000000 217236.000000
590.129028 -170000.000000 217210.000000
-127.655998 -171733.000000 217938.000000
-40.719002 -171455.000000 217838.000000
688.473999 -172177.000000 218305.000000
391.101990 -172231.000000 218252.000000
-3728.629883 -180391.000000 218612.000000
3137.889893 -171437.000000 218535.000000
-7714.080078 -175932.000000 219034.000000
2512.129883 -172718.000000 218713.000000
-8711.030273 -178145.000000 219116.000000
54407.699219 -181119.000000 207957.000000
32420.699219 -171674.000000 169534.000000
32613.900391 -171729.000000 169227.000000
35936.500000 -169259.000000 170513.000000
35556.398438 -169382.000000 170476.000000
30515.400391 -172521.000000 170837.000000
29212.199219 -171634.000000 172432.000000
39373.101562 -168082.000000 171959.000000
39633.800781 -167949.000000 172218.000000
39765.398438 -168096.000000 171969.000000
33844.500000 -168746.000000 172591.000000
38216.800781 -167467.000000 173299.000000
37536.300781 -167068.000000 174239.000000
43796.000000 -166659.000000 174960.000000
40623.199219 -166148.000000 176015.000000
28785.800781 -184587.000000 177049.000000
28788.400391 -184667.000000 177264.000000
40183.000000 -165692.000000 177248.000000
28816.000000 -184937.000000 177935.000000
46815.300781 -166184.000000 178840.000000
27907.599609 -183904.000000 179076.000000
46603.898438 -165978.000000 179910.000000
25841.599609 -182204.000000 180397.000000
30780.400391 -186744.000000 181150.000000
44153.199219 -165366.000000 181215.000000
46882.898438 -165760.000000 181477.000000
49526.398438 -166564.000000 181683.000000
27908.000000 -184965.000000 183529.000000
26714.199219 -184212.000000 183978.000000
32037.699219 -187200.000000 184840.000000
29286.699219 -186027.000000 185267.000000
29580.300781 -186192.000000 185120.000000
33071.800781 -187397.000000 186753.000000
30034.800781 -186340.000000 186997.000000
32485.699219 -187259.000000 188412.000000
32456.900391 -187219.000000 188709.000000
29377.400391 -186195.000000 188868.000000
33564.500000 -187328.000000 190214.000000
40212.398438 -189155.000000 191984.000000
36632.398438 -188106.000000 192099.000000
38296.101562 -188845.000000 194792.000000
38843.000000 -188368.000000 196882.000000
39943.699219 -188266.000000 198878.000000
39513.398438 -187839.000000 200763.000000
51524.300781 -167391.000000 181775.000000
51341.300781 -167140.000000 182647.000000
49603.800781 -166436.000000 183144.000000
53891.398438 -168257.000000 184832.000000
57382.101562 -170864.000000 188144.000000
57229.898438 -170746.000000 187897.000000
53233.101562 -167944.000000 187738.000000
53198.500000 -167967.000000 188115.000000
53438.398438 -168053.000000 187942.000000
55899.300781 -169511.000000 188932.000000
58231.800781 -171891.000000 190033.000000
54573.500000 -168965.000000 189978.000000
60075.699219 -175865.000000 194662.000000
58811.699219 -173770.000000 195383.000000
57685.601562 -173058.000000 196123.000000
56874.398438 -172483.000000 196513.000000
59201.101562 -178275.000000 198391.000000
59194.800781 -178563.000000 198445.000000
44091.101562 -189360.000000 198782.000000
58087.699219 -181257.000000 200048.000000
42977.101562 -188849.000000 200829.000000
57272.300781 -175929.000000 200419.000000
44189.500000 -189069.000000 201105.000000
44333.699219 -189015.000000 201357.000000
57157.601562 -177490.000000 201574.000000
56095.699219 -175821.000000 202887.000000
56141.101562 -175588.000000 202543.000000
56711.300781 -177940.000000 202616.000000
55919.898438 -178723.000000 204649.000000
55414.699219 -180651.000000 205365.000000
53158.101562 -183140.000000 208025.000000
47569.300781 -188443.000000 203138.000000
46794.601562 -188318.000000 203801.000000
46511.800781 -188101.000000 204804.000000
46786.000000 -188027.000000 205090.000000
45996.699219 -188016.000000 205502.000000
47017.000000 -187876.000000 205738.000000
48294.398438 -187536.000000 205910.000000
51215.898438 -185217.000000 207148.000000
29419.900391 -169983.000000 173661.000000
30125.099609 -168913.000000 174357.000000
38017.398438 -166224.000000 176065.000000
32870.699219 -166949.000000 175979.000000
24323.900391 -178506.000000 176779.000000
25520.300781 -168485.000000 177176.000000
34599.699219 -165990.000000 176992.000000
28957.800781 -166543.000000 177619.000000
23616.099609 -177923.000000 177807.000000
33163.898438 -165326.000000 178388.000000
22149.699219 -174891.000000 178460.000000
36540.398438 -165162.000000 178598.000000
36805.601562 -165034.000000 178870.000000
21822.500000 -170812.000000 179061.000000
21759.300781 -171095.000000 179061.000000
39685.699219 -165163.000000 179106.000000
21592.900391 -170462.000000 179499.000000
21654.199219 -170166.000000 179542.000000
20752.800781 -171618.000000 180172.000000
25532.199219 -182157.000000 181013.000000
19588.500000 -173061.000000 181044.000000
25515.900391 -182455.000000 181839.000000
25348.500000 -182211.000000 181594.000000
25572.800781 -182383.000000 181503.000000
19137.000000 -174682.000000 181921.000000
12625.200195 -173427.000000 185861.000000
12537.400391 -173006.000000 185829.000000
7829.879883 -176625.000000 187751.000000
12302.200195 -178546.000000 188876.000000
12313.900391 -178761.000000 189091.000000
4472.729980 -176970.000000 189840.000000
1996.369995 -176302.000000 190361.000000
9096.129883 -179725.000000 191348.000000
9266.299805 -179683.000000 191176.000000
2950.629883 -177695.000000 191766.000000
23478.000000 -184841.000000 192459.000000
14605.400391 -182724.000000 193475.000000
22142.300781 -184640.000000 194353.000000
21849.300781 -184546.000000 194479.000000
12658.000000 -182601.000000 194634.000000
21805.300781 -184570.000000 194849.000000
32481.199219 -186503.000000 195271.000000
7434.279785 -180866.000000 195532.000000
5709.080078 -180375.000000 195945.000000
5992.819824 -180435.000000 195807.000000
7061.770020 -180906.000000 196306.000000
7160.439941 -180846.000000 195910.000000
17366.599609 -184373.000000 196469.000000
7306.410156 -181125.000000 196716.000000
19764.699219 -185375.000000 197503.000000
8637.419922 -182306.000000 197716.000000
34055.398438 -186511.000000 198504.000000
33737.699219 -186431.000000 198371.000000
28169.000000 -185446.000000 198763.000000
34086.199219 -186362.000000 199195.000000
37461.500000 -187359.000000 199188.000000
30369.800781 -185597.000000 199988.000000
38074.101562 -187434.000000 199977.000000
33265.699219 -185941.000000 201077.000000
26521.300781 -185332.000000 201192.000000
54882.300781 -178450.000000 207961.000000
42285.898438 -187864.000000 204647.000000
41986.300781 -187840.000000 204361.000000
42262.199219 -187907.000000 204299.000000
39502.500000 -187157.000000 206951.000000
40732.300781 -187472.000000 207817.000000
39700.601562 -187313.000000 208709.000000
38570.398438 -187964.000000 219756.000000
36585.300781 -187344.000000 219881.000000
37793.699219 -187622.000000 221938.000000
41981.500000 -187471.000000 210200.000000
41924.398438 -187514.000000 209769.000000
38052.898438 -187046.000000 210633.000000
39355.898438 -187253.000000 212413.000000
36194.300781 -187271.000000 216366.000000
40376.199219 -187879.000000 217376.000000
47885.699219 -186529.000000 209250.000000
46429.500000 -187472.000000 216026.000000
48284.500000 -186297.000000 209757.000000
47442.300781 -186490.000000 210793.000000
44768.300781 -187130.000000 211004.000000
45080.800781 -187062.000000 211274.000000
49066.000000 -185871.000000 212857.000000
46046.500000 -187508.000000 215888.000000
53647.300781 -169403.000000 193886.000000
35525.101562 -181839.000000 223233.000000
29127.699219 -165573.000000 178977.000000
25839.699219 -166286.000000 179521.000000
40573.199219 -164863.000000 180299.000000
23040.199219 -167136.000000 180570.000000
41078.000000 -164808.000000 180707.000000
40792.500000 -164786.000000 180604.000000
37352.898438 -164050.000000 181035.000000
22185.000000 -167098.000000 181325.000000
20711.199219 -168157.000000 181747.000000
33861.500000 -163256.000000 182233.000000
23927.699219 -165243.000000 182566.000000
29239.699219 -162966.000000 183707.000000
18465.099609 -167221.000000 184100.000000
35067.500000 -162897.000000 183835.000000
17313.900391 -167548.000000 184793.000000
24235.599609 -164189.000000 184366.000000
13945.599609 -170500.000000 185228.000000
47923.101562 -165754.000000 185605.000000
20281.599609 -164972.000000 185565.000000
19996.400391 -165143.000000 185529.000000
19810.400391 -165012.000000 185929.000000
37005.898438 -162497.000000 186170.000000
42493.601562 -163967.000000 186020.000000
27960.900391 -162065.000000 186562.000000
40960.898438 -163393.000000 186484.000000
29952.900391 -161863.000000 186295.000000
6094.669922 -170194.000000 187237.000000
9193.759766 -168493.000000 187195.000000
35191.199219 -161799.000000 187275.000000
35582.300781 -161893.000000 187269.000000
34789.500000 -161540.000000 187754.000000
35133.101562 -161520.000000 188102.000000
9835.410156 -166823.000000 188059.000000
21627.599609 -162855.000000 188529.000000
6546.899902 -167144.000000 188557.000000
28290.300781 -161281.000000 188563.000000
4780.689941 -167743.000000 188787.000000
8773.030273 -165729.000000 189103.000000
6218.439941 -165978.000000 189474.000000
21022.599609 -162758.000000 189231.000000
32353.900391 -160897.000000 189073.000000
4943.000000 -165946.000000 189862.000000
22627.900391 -162177.000000 189547.000000
6513.700195 -164810.000000 190696.000000
43661.500000 -163849.000000 190817.000000
40050.800781 -162392.000000 191079.000000
21573.699219 -161569.000000 191709.000000
33181.800781 -160428.000000 191275.000000
33164.898438 -160353.000000 191645.000000
31887.099609 -160119.000000 192324.000000
6733.220215 -163752.000000 192260.000000
28983.699219 -160024.000000 192963.000000
37482.101562 -161439.000000 192801.000000
30883.300781 -159865.000000 193272.000000
20044.199219 -161193.000000 193763.000000
16799.199219 -161793.000000 194019.000000
21564.300781 -160650.000000 194799.000000
20455.400391 -160442.000000 196247.000000
20513.199219 -160350.000000 196578.000000
28454.900391 -159115.000000 196407.000000
22452.900391 -160052.000000 196595.000000
34589.898438 -159415.000000 196624.000000
17179.500000 -160558.000000 197522.000000
25437.400391 -159225.000000 197725.000000
36518.101562 -159683.000000 197637.000000
26464.699219 -158952.000000 198232.000000
37099.101562 -159352.000000 199944.000000
37455.199219 -159400.000000 199938.000000
32508.900391 -158398.000000 200027.000000
16711.699219 -160093.000000 200711.000000
25373.800781 -158865.000000 200392.000000
7471.770020 -161360.000000 200729.000000
7414.680176 -161373.000000 201130.000000
25272.300781 -158759.000000 201190.000000
8125.799805 -161324.000000 201457.000000
8468.769531 -161288.000000 201825.000000
-5559.870117 -173478.000000 202326.000000
23965.199219 -158794.000000 202827.000000
5439.859863 -161702.000000 203608.000000
5891.479980 -161705.000000 203973.000000
3440.739990 -162344.000000 204428.000000
18376.300781 -159562.000000 204002.000000
10721.099609 -160821.000000 204627.000000
18724.400391 -159527.000000 205117.000000
24194.900391 -158716.000000 205172.000000
31519.400391 -157723.000000 205173.000000
31151.199219 -157729.000000 205170.000000
8768.990234 -161336.000000 205900.000000
24539.199219 -158676.000000 205584.000000
24449.500000 -158784.000000 206543.000000
-2326.659912 -167816.000000 206956.000000
-2120.219971 -167614.000000 206770.000000
7727.549805 -161790.000000 206721.000000
31626.500000 -157720.000000 206773.000000
8149.729980 -161784.000000 207180.000000
8558.519531 -161704.000000 207305.000000
28852.599609 -157862.000000 207447.000000
29087.800781 -157834.000000 207633.000000
-3193.459961 -168501.000000 207558.000000
7677.529785 -162097.000000 207952.000000
22185.199219 -159228.000000 207614.000000
-2670.219971 -167922.000000 208573.000000
21804.099609 -159338.000000 207994.000000
-2404.540039 -167769.000000 208518.000000
-2350.290039 -167702.000000 208861.000000
8124.589844 -162249.000000 209132.000000
8416.570312 -162146.000000 209103.000000
23043.800781 -159266.000000 209105.000000
-2123.350098 -167530.000000 209691.000000
-1866.910034 -167390.000000 209549.000000
9701.280273 -161795.000000 209152.000000
23505.400391 -159247.000000 209641.000000
34970.800781 -158079.000000 209347.000000
2975.129883 -180532.000000 209916.000000
5663.549805 -163632.000000 210340.000000
17513.199219 -160382.000000 209967.000000
4634.439941 -164142.000000 210824.000000
27588.599609 -158297.000000 210571.000000
3427.229980 -164838.000000 211266.000000
13672.099609 -161157.000000 210769.000000
27720.199219 -158312.000000 210778.000000
27803.900391 -158386.000000 211116.000000
-1769.329956 -167492.000000 211261.000000
-1475.189941 -167409.000000 211585.000000
13036.000000 -161657.000000 211770.000000
6891.770020 -163665.000000 212034.000000
-152.940994 -166938.000000 212328.000000
10804.599609 -162410.000000 212198.000000
2407.729980 -165977.000000 212997.000000
13473.200195 -162067.000000 212923.000000
26211.300781 -159371.000000 212998.000000
36259.101562 -158635.000000 213152.000000
7292.569824 -181090.000000 213969.000000
7084.919922 -180999.000000 213851.000000
17534.599609 -161679.000000 213865.000000
8073.740234 -181603.000000 213965.000000
11178.500000 -163404.000000 214255.000000
32086.699219 -159012.000000 214500.000000
32381.300781 -159118.000000 214791.000000
14019.500000 -163034.000000 214838.000000
14349.099609 -163130.000000 215108.000000
14436.900391 -162968.000000 214877.000000
37573.601562 -159222.000000 214842.000000
7717.899902 -180279.000000 215231.000000
7860.169922 -180063.000000 215590.000000
6081.580078 -166169.000000 215911.000000
4228.910156 -166950.000000 215919.000000
38910.699219 -159991.000000 216212.000000
9637.209961 -180136.000000 216811.000000
22592.500000 -162344.000000 217123.000000
30096.699219 -160866.000000 217878.000000
10053.400391 -178798.000000 218152.000000
9756.940430 -178743.000000 218058.000000
6263.689941 -169071.000000 218222.000000
10145.299805 -177950.000000 218595.000000
6619.879883 -169478.000000 218500.000000
37597.300781 -161155.000000 218734.000000
9176.959961 -175743.000000 218985.000000
8851.559570 -175613.000000 218930.000000
7141.430176 -169955.000000 218821.000000
40038.898438 -161567.000000 218688.000000
39625.300781 -161530.000000 218779.000000
11768.200195 -177094.000000 219291.000000
12786.799805 -168552.000000 219604.000000
26525.699219 -162648.000000 219652.000000
11445.400391 -174758.000000 219986.000000
46069.898438 -164781.000000 219846.000000
45848.898438 -164605.000000 219773.000000
40222.500000 -162327.000000 219794.000000
13525.200195 -175695.000000 220203.000000
10010.099609 -172739.000000 219979.000000
20661.300781 -165190.000000 220076.000000
13338.200195 -174070.000000 220563.000000
11859.299805 -171373.000000 220394.000000
23666.800781 -164468.000000 220567.000000
17614.500000 -176671.000000 220776.000000
25699.500000 -163856.000000 220834.000000
24443.500000 -164945.000000 221326.000000
29892.900391 -163053.000000 221505.000000
18251.699219 -170431.000000 221949.000000
43235.500000 -164381.000000 221885.000000
20710.400391 -175621.000000 222122.000000
19829.300781 -168470.000000 221992.000000
27063.500000 -165020.000000 222332.000000
32380.099609 -163281.000000 222290.000000
21870.099609 -168696.000000 222567.000000
27348.500000 -164976.000000 222399.000000
32218.599609 -163643.000000 222656.000000
28821.599609 -164716.000000 222739.000000
35753.898438 -163890.000000 223165.000000
23283.000000 -173415.000000 223506.000000
28394.900391 -165745.000000 223311.000000
34895.500000 -164332.000000 223533.000000
24221.599609 -172700.000000 223873.000000
26147.900391 -168287.000000 223862.000000
30745.599609 -165276.000000 223786.000000
30740.699219 -165081.000000 223635.000000
25889.000000 -173161.000000 224421.000000
25954.900391 -173482.000000 224404.000000
27451.300781 -168418.000000 224375.000000
25917.900391 -172506.000000 224500.000000
25597.699219 -172361.000000 224390.000000
27053.000000 -171735.000000 224956.000000
30570.099609 -166929.000000 224767.000000
30465.099609 -167195.000000 224877.000000
32936.199219 -168581.000000 226344.000000
31628.300781 -171446.000000 226681.000000
32223.699219 -170944.000000 226849.000000
46555.300781 -165169.000000 190586.000000
47403.601562 -165568.000000 191021.000000
48617.398438 -166328.000000 192185.000000
46576.300781 -165219.000000 192593.000000
49784.800781 -167219.000000 193277.000000
45309.300781 -164684.000000 194162.000000
46137.601562 -165165.000000 194309.000000
44711.800781 -164387.000000 194674.000000
44461.199219 -164237.000000 194788.000000
43195.699219 -163553.000000 195184.000000
43693.699219 -163861.000000 196097.000000
45058.000000 -164843.000000 196639.000000
44390.699219 -164388.000000 197372.000000
45239.898438 -165076.000000 198096.000000
45680.101562 -165478.000000 198284.000000
54731.398438 -171710.000000 199100.000000
54902.500000 -172032.000000 199498.000000
53405.000000 -171350.000000 200909.000000
52778.601562 -171152.000000 201635.000000
53500.398438 -171760.000000 201848.000000
53533.101562 -171711.000000 201652.000000
48606.300781 -168901.000000 203568.000000
50885.699219 -170687.000000 204976.000000
50715.699219 -170543.000000 204835.000000
52992.398438 -172590.000000 205871.000000
48509.699219 -169893.000000 206850.000000
44781.898438 -164699.000000 199306.000000
44704.800781 -164051.000000 201004.000000
47814.101562 -165879.000000 207625.000000
47351.300781 -170479.000000 209538.000000
46865.199219 -169537.000000 210885.000000
48187.398438 -169050.000000 214780.000000
45552.601562 -171583.000000 215750.000000
44529.898438 -172287.000000 216433.000000
43500.601562 -172913.000000 216831.000000
38345.000000 -176735.000000 220000.000000
38557.300781 -185842.000000 225342.000000
45331.699219 -176922.000000 219711.000000
43874.800781 -177262.000000 220183.000000
42830.699219 -178997.000000 222918.000000
54649.000000 -175451.000000 206815.000000
53430.199219 -173558.000000 207314.000000
54334.300781 -175734.000000 208623.000000
54312.800781 -175832.000000 208932.000000
51366.300781 -173237.000000 211705.000000
44231.800781 -176844.000000 219379.000000
43944.500000 -176734.000000 219076.000000
36608.101562 -186525.000000 222137.000000
47080.398438 -173304.000000 213929.000000
46736.800781 -173228.000000 213857.000000
44969.500000 -175435.000000 217213.000000
39255.398438 -178924.000000 222709.000000
36114.500000 -180724.000000 225677.000000
36184.199219 -180632.000000 225783.000000
39949.101562 -179818.000000 225709.000000
38435.601562 -178680.000000 223898.000000
38950.898438 -178621.000000 224214.000000
38826.000000 -178663.000000 224473.000000
38241.300781 -179107.000000 225486.000000
37662.601562 -180639.000000 226897.000000
37473.199219 -180796.000000 226916.000000
38119.699219 -178332.000000 220557.000000
36659.398438 -179791.000000 221692.000000
36557.500000 -180195.000000 223590.000000
48648.699219 -154461.000000 200068.000000
44849.300781 -156401.000000 201840.000000
45090.898438 -156235.000000 201784.000000
46162.199219 -155271.000000 202115.000000
48212.800781 -153869.000000 203000.000000
48122.500000 -153826.000000 203375.000000
48777.398438 -153762.000000 203276.000000
45377.500000 -155387.000000 206206.000000
44042.398438 -156322.000000 207426.000000
43858.398438 -156522.000000 208379.000000
49127.398438 -153666.000000 208782.000000
51763.898438 -154960.000000 209631.000000
51947.101562 -155189.000000 209517.000000
45942.898438 -155910.000000 210074.000000
42420.199219 -157427.000000 209887.000000
47687.199219 -155454.000000 210548.000000
53481.500000 -157831.000000 211021.000000
47299.699219 -155793.000000 210810.000000
40049.500000 -158174.000000 211248.000000
39972.800781 -158214.000000 211487.000000
39937.601562 -158265.000000 211853.000000
40239.398438 -158232.000000 212011.000000
40684.000000 -158489.000000 213153.000000
48741.000000 -157525.000000 212784.000000
48519.601562 -157761.000000 212978.000000
40670.000000 -159267.000000 214695.000000
48655.101562 -161684.000000 215028.000000
43810.101562 -159724.000000 215394.000000
47144.699219 -161068.000000 215573.000000
47009.800781 -160873.000000 215532.000000
47521.898438 -162569.000000 216023.000000
50573.699219 -160358.000000 197366.000000
50227.199219 -161253.000000 197827.000000
45886.101562 -159574.000000 198467.000000
46129.398438 -156217.000000 199231.000000
43737.699219 -158407.000000 199871.000000
43126.500000 -160041.000000 200294.000000
43366.199219 -159884.000000 200218.000000
44325.601562 -161807.000000 200818.000000
51016.898438 -162941.000000 201430.000000
50716.300781 -162950.000000 201658.000000
45858.699219 -163149.000000 202463.000000
46823.300781 -163134.000000 202899.000000
47063.300781 -163938.000000 204131.000000
50138.101562 -163604.000000 204175.000000
55156.601562 -162935.000000 205865.000000
55174.199219 -162888.000000 205528.000000
55248.500000 -162715.000000 205873.000000
50028.300781 -164679.000000 207898.000000
54960.898438 -161077.000000 209764.000000
50791.601562 -164718.000000 210650.000000
50591.398438 -164856.000000 210486.000000
50761.699219 -162940.000000 213485.000000
50735.398438 -163320.000000 213317.000000
49013.500000 -166042.000000 215614.000000
40971.101562 -165007.000000 223893.000000
35535.398438 -170601.000000 228506.000000
35545.398438 -170341.000000 228348.000000
35165.601562 -173800.000000 228783.000000
37968.500000 -176729.000000 228202.000000
44083.898438 -178100.000000 233139.000000
48873.699219 -166803.000000 219834.000000
49065.199219 -166993.000000 220068.000000
50321.601562 -168161.000000 220905.000000
46935.300781 -166016.000000 222130.000000
49084.398438 -167289.000000 222841.000000
45883.101562 -166038.000000 223442.000000
44388.398438 -165942.000000 224270.000000
53376.898438 -170158.000000 225297.000000
42751.699219 -166650.000000 225944.000000
46101.800781 -167670.000000 226788.000000
52249.199219 -169726.000000 226917.000000
52122.699219 -169730.000000 227164.000000
40774.500000 -167462.000000 227070.000000
47590.101562 -168078.000000 227200.000000
39733.398438 -168135.000000 227997.000000
49763.898438 -169093.000000 228331.000000
48093.199219 -168696.000000 228553.000000
52352.300781 -170568.000000 229019.000000
52452.398438 -170487.000000 228760.000000
42157.300781 -168525.000000 228889.000000
49579.000000 -169358.000000 229518.000000
37473.800781 -170723.000000 229632.000000
39393.101562 -170019.000000 229926.000000
41169.699219 -169886.000000 230535.000000
37913.898438 -172514.000000 230739.000000
49827.300781 -169731.000000 230821.000000
44244.500000 -169886.000000 231781.000000
43955.101562 -170674.000000 232779.000000
44158.699219 -170497.000000 232664.000000
41615.101562 -174387.000000 233282.000000
48760.398438 -170333.000000 232989.000000
44541.601562 -173696.000000 234907.000000
46327.898438 -172313.000000 217585.000000
41841.500000 -174998.000000 222160.000000
39896.101562 -175389.000000 222942.000000
38532.898438 -175908.000000 224583.000000
49951.398438 -172008.000000 219010.000000
51016.300781 -173664.000000 220951.000000
44219.300781 -175720.000000 222611.000000
42572.101562 -176853.000000 224317.000000
39687.500000 -176982.000000 225808.000000
45736.398438 -180224.000000 230032.000000
46095.601562 -180124.000000 230758.000000
45607.898438 -179821.000000 231284.000000
49093.601562 -169345.000000 216493.000000
50623.300781 -169521.000000 219211.000000
52708.101562 -170506.000000 222387.000000
55251.398438 -172479.000000 223626.000000
-6552.600098 -160860.000000 190101.000000
-2787.879883 -161600.000000 190576.000000
-2161.489990 -160105.000000 191275.000000
-774.877014 -161917.000000 191281.000000
-675.789001 -162136.000000 191262.000000
1008.849976 -162712.000000 191898.000000
-700.419983 -159428.000000 192780.000000
2323.850098 -162157.000000 193247.000000
-10168.799805 -165181.000000 193942.000000
253.865997 -159533.000000 193748.000000
-4886.919922 -156760.000000 194382.000000
-10163.200195 -165777.000000 194531.000000
5101.669922 -161992.000000 195486.000000
-11557.200195 -164090.000000 196541.000000
-11646.599609 -163829.000000 196686.000000
-4164.310059 -156554.000000 196735.000000
-11434.099609 -164547.000000 197889.000000
-11512.900391 -164371.000000 198265.000000
-11068.099609 -165104.000000 198326.000000
-11076.200195 -164633.000000 199627.000000
-360.434998 -158431.000000 199494.000000
-7632.430176 -169842.000000 199898.000000
1238.469971 -159627.000000 200383.000000
-6899.700195 -169863.000000 201100.000000
-11499.299805 -161100.000000 201184.000000
-11611.599609 -161266.000000 200841.000000
-2736.659912 -158190.000000 200838.000000
-9317.339844 -166092.000000 201528.000000
522.851013 -159959.000000 201721.000000
-8559.790039 -166341.000000 202214.000000
3405.209961 -161205.000000 201900.000000
3262.600098 -161274.000000 202203.000000
-10062.900391 -159275.000000 201804.000000
-6185.350098 -168829.000000 202566.000000
-10077.799805 -160172.000000 202306.000000
-10323.900391 -160382.000000 202261.000000
-3710.520020 -159238.000000 202737.000000
-7793.479980 -166334.000000 202775.000000
3385.060059 -161528.000000 202807.000000
-2678.989990 -161173.000000 203940.000000
2208.629883 -162674.000000 204500.000000
-3286.219971 -162959.000000 204460.000000
-2241.929932 -165253.000000 204822.000000
-1928.619995 -166883.000000 205656.000000
-2079.209961 -166752.000000 205399.000000
-6069.520020 -173662.000000 203708.000000
-7908.540039 -177642.000000 204085.000000
-8107.680176 -177506.000000 204349.000000
-8134.569824 -174284.000000 205402.000000
-7229.399902 -172822.000000 205897.000000
-6401.479980 -181757.000000 205990.000000
-7522.290039 -182515.000000 207304.000000
-7081.759766 -182510.000000 207407.000000
-10693.200195 -176826.000000 207699.000000
-4198.359863 -182329.000000 208089.000000
-11406.299805 -177963.000000 208178.000000
-11366.000000 -177693.000000 208226.000000
-4417.370117 -169365.000000 207949.000000
-11698.000000 -177491.000000 208755.000000
-4191.859863 -168976.000000 208690.000000
-4606.479980 -169310.000000 208632.000000
-2712.350098 -182058.000000 209014.000000
-8315.940430 -184420.000000 209709.000000
-6952.060059 -183731.000000 210576.000000
-2535.040039 -182297.000000 210720.000000
-2805.919922 -182333.000000 210495.000000
-8322.490234 -184636.000000 210989.000000
2825.020020 -180074.000000 211200.000000
-7812.069824 -171665.000000 210755.000000
-3082.709961 -168192.000000 211207.000000
-9238.480469 -173084.000000 211953.000000
-7561.370117 -184586.000000 212585.000000
-3185.500000 -182402.000000 213155.000000
-3226.909912 -182395.000000 213518.000000
-936.916992 -181308.000000 213379.000000
306.054993 -180146.000000 214165.000000
56.070000 -180288.000000 214315.000000
-5239.459961 -183794.000000 214648.000000
2117.419922 -178935.000000 214710.000000
-7870.850098 -172875.000000 215273.000000
-767.414001 -180226.000000 215884.000000
-6274.020020 -171715.000000 215589.000000
4086.750000 -177676.000000 216634.000000
3891.760010 -177500.000000 216852.000000
6347.370117 -177942.000000 216772.000000
6262.669922 -177726.000000 216980.000000
-1884.310059 -181034.000000 217338.000000
-6826.640137 -174782.000000 217879.000000
-857.455994 -177841.000000 218291.000000
-3392.320068 -174065.000000 218199.000000
-2256.290039 -175200.000000 218603.000000
3710.679932 -174613.000000 218688.000000
3396.620117 -174926.000000 218599.000000
5769.830078 -174159.000000 218946.000000
-8177.620117 -178140.000000 219425.000000
-8113.069824 -178400.000000 219447.000000
-4637.600098 -176070.000000 219110.000000
-6465.419922 -178820.000000 219847.000000
32626.000000 -171486.000000 169529.000000
31180.099609 -172578.000000 170081.000000
31414.800781 -170737.000000 171704.000000
39249.800781 -167939.000000 172228.000000
34150.101562 -168705.000000 172485.000000
38490.800781 -167447.000000 173300.000000
37434.699219 -166858.000000 174732.000000
38638.398438 -166439.000000 175436.000000
26836.599609 -181197.000000 175686.000000
40501.601562 -166034.000000 176313.000000
27049.500000 -182706.000000 178001.000000
29062.599609 -185402.000000 178209.000000
28963.900391 -185203.000000 178003.000000
46421.199219 -166122.000000 178847.000000
49846.101562 -167549.000000 179084.000000
47218.101562 -166079.000000 180087.000000
26029.099609 -182276.000000 180096.000000
28379.400391 -184718.000000 180444.000000
44454.101562 -165505.000000 180840.000000
47893.500000 -166073.000000 181619.000000
27309.800781 -184137.000000 182327.000000
48721.898438 -166079.000000 183983.000000
48455.398438 -166003.000000 183891.000000
34774.300781 -188263.000000 188457.000000
34498.500000 -188153.000000 188222.000000
38092.300781 -188905.000000 190285.000000
37803.601562 -188804.000000 190429.000000
35075.898438 -187451.000000 191671.000000
39822.101562 -189138.000000 192434.000000
36823.699219 -188209.000000 192129.000000
36308.000000 -188002.000000 192866.000000
35932.601562 -187780.000000 192973.000000
34260.199219 -187055.000000 193126.000000
38451.199219 -188836.000000 195064.000000
35607.101562 -187375.000000 195834.000000
35649.800781 -187427.000000 195593.000000
40558.000000 -188536.000000 198447.000000
40218.601562 -188432.000000 198443.000000
39530.101562 -187883.000000 200501.000000
55427.898438 -169258.000000 186070.000000
51425.800781 -167141.000000 185874.000000
54271.800781 -168369.000000 187023.000000
57164.898438 -170597.000000 187909.000000
53420.500000 -168406.000000 190164.000000
57683.601562 -171302.000000 191294.000000
57860.398438 -171404.000000 191014.000000
58413.699219 -172207.000000 192470.000000
56724.300781 -171165.000000 193477.000000
59956.500000 -175402.000000 194868.000000
58165.101562 -173110.000000 195391.000000
57575.199219 -172863.000000 195947.000000
56407.199219 -171939.000000 196200.000000
57011.000000 -172936.000000 197152.000000
57338.101562 -173661.000000 197682.000000
58819.500000 -177680.000000 198874.000000
44608.500000 -189413.000000 199043.000000
56632.500000 -174190.000000 199485.000000
58171.898438 -177322.000000 199824.000000
58140.101562 -177034.000000 199705.000000
57148.898438 -175667.000000 200387.000000
57038.699219 -176707.000000 201390.000000
56563.199219 -177547.000000 202803.000000
56151.000000 -176470.000000 203248.000000
42970.800781 -188006.000000 204507.000000
54619.500000 -183119.000000 204654.000000
54708.699219 -183142.000000 204465.000000
53010.601562 -183132.000000 208591.000000
46301.898438 -189389.000000 200174.000000
49124.898438 -188815.000000 201050.000000
49093.300781 -188717.000000 201473.000000
48776.601562 -188782.000000 201498.000000
47550.898438 -188245.000000 203814.000000
45149.101562 -188245.000000 204193.000000
46138.398438 -188113.000000 204833.000000
47250.898438 -188056.000000 204715.000000
46882.800781 -188082.000000 204763.000000
52282.898438 -184295.000000 207312.000000
28076.000000 -172088.000000 172844.000000
27012.400391 -171501.000000 173973.000000
27179.199219 -171293.000000 173997.000000
29570.699219 -168759.000000 174777.000000
30135.699219 -166936.000000 176759.000000
23912.300781 -177891.000000 176817.000000
24498.099609 -168936.000000 177492.000000
23253.699219 -177526.000000 178163.000000
23666.800781 -168590.000000 178358.000000
21696.699219 -170871.000000 179211.000000
21756.099609 -170588.000000 179231.000000
23816.300781 -179836.000000 180309.000000
23867.400391 -179766.000000 180105.000000
20040.599609 -173014.000000 180703.000000
25115.300781 -183192.000000 184173.000000
11537.599609 -174950.000000 186707.000000
14804.900391 -177685.000000 187396.000000
14014.700195 -179457.000000 189264.000000
5950.669922 -177169.000000 189181.000000
13698.400391 -179700.000000 189667.000000
4170.299805 -176640.000000 189661.000000
12739.099609 -179952.000000 190359.000000
13584.200195 -180245.000000 190413.000000
1556.540039 -176386.000000 190690.000000
8829.200195 -179557.000000 191072.000000
23504.599609 -184736.000000 191850.000000
2644.169922 -177756.000000 192047.000000
20765.800781 -184158.000000 192746.000000
20290.300781 -184180.000000 193051.000000
25332.099609 -185467.000000 193578.000000
22388.800781 -184729.000000 194237.000000
22496.300781 -184747.000000 193954.000000
21492.800781 -184503.000000 194904.000000
8961.440430 -181281.000000 194845.000000
4872.609863 -180018.000000 195486.000000
30904.900391 -186040.000000 196064.000000
4821.930176 -180194.000000 196322.000000
4569.310059 -180275.000000 196841.000000
16223.799805 -184311.000000 197016.000000
7468.770020 -181209.000000 196740.000000
19455.400391 -185334.000000 197635.000000
8168.540039 -181928.000000 197445.000000
8499.139648 -182369.000000 197963.000000
8026.810059 -182343.000000 198294.000000
17604.599609 -184976.000000 198850.000000
30422.000000 -185629.000000 199621.000000
37763.500000 -186976.000000 202395.000000
38021.898438 -187079.000000 202269.000000
31525.199219 -185660.000000 203977.000000
33337.500000 -185818.000000 204674.000000
32985.101562 -185774.000000 204711.000000
41979.199219 -187791.000000 204735.000000
40076.898438 -187314.000000 205215.000000
39292.199219 -187204.000000 208411.000000
36512.199219 -187078.000000 220934.000000
36247.300781 -186984.000000 220702.000000
38082.000000 -187047.000000 210931.000000
39647.300781 -187293.000000 212740.000000
40988.699219 -187548.000000 214509.000000
36608.101562 -187329.000000 215972.000000
40017.800781 -187828.000000 217273.000000
35966.500000 -187073.000000 219620.000000
48426.898438 -186208.000000 213547.000000
47963.000000 -186405.000000 209863.000000
48130.898438 -186262.000000 210548.000000
44872.000000 -187096.000000 211727.000000
42606.601562 -187287.000000 212432.000000
43250.699219 -187318.000000 213536.000000
45224.000000 -187338.000000 214607.000000
49900.300781 -166539.000000 187159.000000
53508.199219 -168912.000000 192342.000000
54841.199219 -170325.000000 194523.000000
54868.800781 -171319.000000 197807.000000
29427.300781 -165407.000000 179161.000000
28630.699219 -164779.000000 180471.000000
29364.900391 -164299.000000 180921.000000
23206.400391 -166776.000000 180829.000000
37102.300781 -164128.000000 180757.000000
20683.099609 -167853.000000 181971.000000
28113.500000 -164135.000000 181844.000000
36129.500000 -163606.000000 181767.000000
36378.800781 -163304.000000 182874.000000
29781.699219 -162709.000000 184127.000000
29347.400391 -162728.000000 184234.000000
24190.599609 -164083.000000 184624.000000
27597.500000 -162939.000000 184866.000000
13610.400391 -171141.000000 185278.000000
25176.099609 -163239.000000 185788.000000
6801.709961 -171862.000000 186493.000000
12030.799805 -169921.000000 186199.000000
28123.300781 -162101.000000 186371.000000
8174.729980 -170630.000000 186578.000000
8573.820312 -170651.000000 186524.000000
5892.140137 -170714.000000 187137.000000
10874.299805 -167289.000000 187585.000000
4490.500000 -170099.000000 187991.000000
10051.700195 -167163.000000 187794.000000
41227.300781 -163209.000000 187838.000000
3609.300049 -170254.000000 188345.000000
35775.199219 -161682.000000 188157.000000
7118.310059 -167041.000000 188458.000000
4983.709961 -167460.000000 188869.000000
9016.799805 -165519.000000 189288.000000
43391.500000 -163896.000000 188949.000000
24610.500000 -161862.000000 189142.000000
24976.099609 -161908.000000 188810.000000
2258.169922 -175053.000000 189423.000000
2041.800049 -175189.000000 189559.000000
6371.160156 -165776.000000 189603.000000
33082.101562 -160950.000000 189128.000000
20580.800781 -162464.000000 190226.000000
20414.000000 -162422.000000 190419.000000
34246.101562 -160689.000000 191200.000000
31554.900391 -160267.000000 191580.000000
31450.699219 -160219.000000 191834.000000
31835.000000 -160192.000000 191972.000000
7473.850098 -163780.000000 192255.000000
37469.800781 -161355.000000 193214.000000
30554.400391 -159967.000000 192913.000000
20140.699219 -161277.000000 193425.000000
33177.699219 -159964.000000 193647.000000
17212.699219 -161883.000000 193556.000000
21911.800781 -160738.000000 194262.000000
15813.099609 -161669.000000 195051.000000
15984.200195 -161549.000000 195293.000000
18266.400391 -161043.000000 195395.000000
33983.101562 -159757.000000 195219.000000
28574.000000 -159195.000000 196062.000000
34403.898438 -159485.000000 196298.000000
34301.800781 -159391.000000 196503.000000
8396.990234 -161710.000000 197869.000000
17460.900391 -160360.000000 197862.000000
28219.800781 -158526.000000 198972.000000
31971.199219 -158565.000000 198918.000000
11951.599609 -161212.000000 199554.000000
32969.101562 -158489.000000 199641.000000
29756.000000 -158210.000000 200366.000000
-6060.830078 -174187.000000 200772.000000
25440.599609 -158797.000000 200724.000000
25739.900391 -158730.000000 200702.000000
12429.000000 -161005.000000 201038.000000
8039.299805 -161332.000000 201753.000000
-5512.879883 -173223.000000 202388.000000
32250.199219 -158090.000000 202489.000000
5752.490234 -161663.000000 203609.000000
21224.000000 -159261.000000 203323.000000
31823.900391 -157882.000000 203546.000000
21157.199219 -159210.000000 204088.000000
32694.900391 -157931.000000 203600.000000
4253.879883 -162165.000000 204488.000000
11384.099609 -160748.000000 204480.000000
35936.000000 -158173.000000 204917.000000
36162.199219 -158188.000000 205191.000000
9449.019531 -161061.000000 205077.000000
31400.599609 -157721.000000 205439.000000
24509.500000 -158727.000000 206029.000000
9760.669922 -161103.000000 205962.000000
10137.700195 -161085.000000 206370.000000
33372.898438 -157767.000000 206301.000000
33712.601562 -157799.000000 206258.000000
22199.699219 -159143.000000 206753.000000
8644.299805 -161635.000000 207106.000000
20983.000000 -159314.000000 207002.000000
31230.599609 -157712.000000 206772.000000
21465.300781 -159342.000000 207663.000000
21216.199219 -159328.000000 207321.000000
7907.069824 -162006.000000 207849.000000
22989.500000 -159088.000000 207494.000000
8000.390137 -162061.000000 208192.000000
-2138.409912 -167594.000000 208697.000000
-2621.889893 -167849.000000 208910.000000
-1948.010010 -167449.000000 209225.000000
23398.699219 -159201.000000 209186.000000
2887.879883 -180419.000000 210214.000000
7066.430176 -162776.000000 209587.000000
17903.400391 -160389.000000 210367.000000
17749.300781 -160529.000000 210907.000000
3518.750000 -164627.000000 210761.000000
3309.260010 -164793.000000 210955.000000
27429.900391 -158382.000000 210721.000000
-1219.589966 -167196.000000 211301.000000
37068.000000 -158382.000000 211607.000000
17907.199219 -160803.000000 211905.000000
18310.599609 -160705.000000 211902.000000
28477.900391 -158481.000000 211923.000000
-149.324997 -167049.000000 212672.000000
11035.099609 -162474.000000 212492.000000
23365.800781 -159890.000000 212368.000000
23351.599609 -159994.000000 212723.000000
26454.699219 -159318.000000 213033.000000
36792.101562 -158627.000000 213236.000000
6830.069824 -180534.000000 214102.000000
7976.310059 -181317.000000 214246.000000
4862.520020 -165655.000000 214443.000000
15927.000000 -162473.000000 214571.000000
15934.400391 -162368.000000 214396.000000
955.674988 -167527.000000 214742.000000
25660.199219 -160305.000000 215082.000000
37797.800781 -159306.000000 214982.000000
7311.580078 -165038.000000 215125.000000
17427.199219 -162344.000000 215016.000000
28440.900391 -159854.000000 215615.000000
33962.800781 -159345.000000 215469.000000
6526.770020 -165921.000000 215838.000000
14012.200195 -163987.000000 216271.000000
14273.400391 -163922.000000 216274.000000
2979.510010 -168260.000000 216688.000000
10602.400391 -165141.000000 216545.000000
20876.199219 -162688.000000 216791.000000
30431.599609 -160391.000000 217210.000000
7397.660156 -167155.000000 217377.000000
13712.200195 -165157.000000 217404.000000
23722.500000 -162276.000000 217596.000000
9296.030273 -178932.000000 217676.000000
22553.599609 -162861.000000 217835.000000
29785.400391 -160874.000000 217787.000000
9890.820312 -178964.000000 217984.000000
13506.799805 -166483.000000 218442.000000
13707.000000 -166236.000000 218300.000000
26907.000000 -161821.000000 218468.000000
30616.599609 -160910.000000 218101.000000
10042.000000 -177687.000000 218648.000000
10847.000000 -167570.000000 218436.000000
44689.898438 -162894.000000 218337.000000
37978.000000 -161220.000000 218748.000000
7400.649902 -169960.000000 218880.000000
45706.398438 -164197.000000 219190.000000
27620.099609 -162121.000000 219321.000000
27394.699219 -162036.000000 219064.000000
6911.009766 -174174.000000 219090.000000
7046.109863 -171059.000000 219182.000000
6878.660156 -170866.000000 219095.000000
35662.199219 -161279.000000 219366.000000
8728.129883 -171145.000000 219554.000000
21160.400391 -164838.000000 219911.000000
23467.199219 -164441.000000 220449.000000
35496.699219 -161826.000000 220387.000000
18555.800781 -166606.000000 220657.000000
31219.500000 -162624.000000 221222.000000
31360.500000 -162438.000000 220975.000000
16856.900391 -174459.000000 221297.000000
16872.699219 -174091.000000 221377.000000
19226.699219 -167672.000000 221535.000000
19145.500000 -167473.000000 221411.000000
24900.599609 -164896.000000 221467.000000
17141.500000 -170138.000000 221559.000000
43297.101562 -164233.000000 221562.000000
38255.800781 -163158.000000 221907.000000
22239.000000 -168348.000000 222543.000000
22742.900391 -168493.000000 222761.000000
29108.300781 -164630.000000 222775.000000
23049.500000 -173084.000000 223467.000000
34727.199219 -164110.000000 223331.000000
25568.400391 -173018.000000 224316.000000
25646.599609 -172680.000000 224383.000000
35481.300781 -165777.000000 224965.000000
35571.500000 -165548.000000 224750.000000
27319.400391 -171818.000000 225062.000000
29074.699219 -168830.000000 225137.000000
29234.900391 -168619.000000 225115.000000
33211.101562 -168508.000000 226411.000000
33259.500000 -168257.000000 226299.000000
31344.900391 -171364.000000 226548.000000
47172.398438 -165435.000000 188389.000000
46894.000000 -165313.000000 188520.000000
46398.500000 -165100.000000 190755.000000
48877.199219 -166508.000000 192408.000000
45242.300781 -164527.000000 192428.000000
45045.101562 -164431.000000 192594.000000
49934.699219 -167375.000000 193577.000000
44995.699219 -164514.000000 194242.000000
46336.800781 -165312.000000 194501.000000
44429.898438 -164246.000000 195143.000000
45068.101562 -164815.000000 196254.000000
44577.898438 -164507.000000 196953.000000
53944.300781 -171088.000000 198975.000000
54510.699219 -171841.000000 199949.000000
53160.800781 -171191.000000 200931.000000
53782.601562 -172258.000000 202514.000000
52139.000000 -171062.000000 203019.000000
48614.800781 -168981.000000 203884.000000
50690.800781 -171648.000000 208409.000000
32879.898438 -181906.000000 221835.000000
32486.699219 -181879.000000 221839.000000
34309.898438 -183509.000000 222370.000000
42685.898438 -163263.000000 196993.000000
45022.500000 -164916.000000 198694.000000
44841.000000 -164759.000000 198911.000000
46964.500000 -167293.000000 206863.000000
46897.898438 -167021.000000 206564.000000
47606.199219 -169859.000000 208268.000000
47580.000000 -170800.000000 209579.000000
47514.699219 -170835.000000 209735.000000
46933.398438 -169196.000000 210372.000000
45928.300781 -172410.000000 213108.000000
47749.000000 -169101.000000 213972.000000
48514.199219 -168597.000000 214911.000000
47099.800781 -170388.000000 215057.000000
45774.699219 -171520.000000 215841.000000
45923.800781 -171544.000000 216034.000000
44429.101562 -172277.000000 216241.000000
41346.199219 -174177.000000 218553.000000
39541.199219 -181667.000000 225317.000000
38790.300781 -185693.000000 225635.000000
39009.699219 -184258.000000 226215.000000
39181.898438 -183961.000000 226543.000000
37800.398438 -185451.000000 224545.000000
36510.199219 -183378.000000 225234.000000
42480.898438 -178931.000000 222820.000000
42059.699219 -179467.000000 223988.000000
54543.300781 -175257.000000 206888.000000
54577.699219 -175138.000000 206585.000000
53616.601562 -173878.000000 207519.000000
53592.000000 -173726.000000 207145.000000
53195.300781 -174040.000000 209494.000000
51402.199219 -173427.000000 212096.000000
50530.601562 -173450.000000 213060.000000
44335.000000 -175359.000000 216956.000000
45292.000000 -175893.000000 217988.000000
43068.800781 -177404.000000 220365.000000
36288.000000 -184315.000000 223635.000000
38832.699219 -179286.000000 225730.000000
38763.199219 -178657.000000 223803.000000
38530.398438 -178758.000000 223618.000000
39087.601562 -178660.000000 224426.000000
36221.199219 -180149.000000 221896.000000
36383.300781 -179899.000000 221733.000000
45324.000000 -156082.000000 201568.000000
47006.898438 -154561.000000 202355.000000
47155.300781 -154405.000000 202704.000000
48408.800781 -153613.000000 204064.000000
48636.000000 -153381.000000 205162.000000
48870.800781 -153315.000000 205248.000000
46841.800781 -154299.000000 205757.000000
44759.699219 -155864.000000 206704.000000
44497.398438 -156063.000000 207509.000000
44310.601562 -156186.000000 207679.000000
40615.898438 -157753.000000 208790.000000
40623.500000 -157784.000000 209040.000000
42535.300781 -157469.000000 210361.000000
51239.000000 -154570.000000 210000.000000
53898.601562 -158136.000000 210538.000000
47365.898438 -155565.000000 210529.000000
41031.000000 -158260.000000 212667.000000
49103.699219 -157594.000000 212768.000000
44154.101562 -158256.000000 213610.000000
44596.000000 -159774.000000 215372.000000
48511.300781 -158514.000000 196482.000000
50558.398438 -160007.000000 197321.000000
50736.699219 -160962.000000 197659.000000
50919.898438 -161180.000000 197854.000000
49364.601562 -161365.000000 198295.000000
52070.601562 -162238.000000 199214.000000
46572.800781 -156081.000000 198873.000000
45164.898438 -159971.000000 199347.000000
52219.199219 -162502.000000 199740.000000
48532.300781 -161772.000000 199966.000000
42963.601562 -160752.000000 200330.000000
43646.101562 -157392.000000 200763.000000
50754.101562 -163096.000000 202028.000000
46388.101562 -163162.000000 202743.000000
46600.500000 -164187.000000 203923.000000
46750.398438 -163950.000000 203812.000000
54699.300781 -163306.000000 204668.000000
47271.000000 -165270.000000 206230.000000
53452.601562 -163413.000000 209464.000000
51058.199219 -164601.000000 210286.000000
51270.199219 -164410.000000 210742.000000
49235.898438 -166217.000000 212416.000000
51801.500000 -162771.000000 212547.000000
51111.300781 -162999.000000 213117.000000
38382.101562 -168304.000000 227872.000000
37907.800781 -176013.000000 229787.000000
42299.300781 -177591.000000 232362.000000
49938.000000 -167771.000000 220903.000000
45674.601562 -165322.000000 221956.000000
45415.699219 -165264.000000 222109.000000
49578.898438 -167575.000000 222978.000000
44530.601562 -166133.000000 224552.000000
44113.300781 -166295.000000 225035.000000
52784.898438 -169935.000000 226652.000000
40934.000000 -167287.000000 226841.000000
