1230
87369.609375 87447.242188 50553.136719
87136.867188 87400.359375 50883.503906
87649.132812 87444.125000 49684.214844
76702.882812 87870.406250 49920.085938
76531.632812 88054.921875 50157.445312
76388.351562 87879.843750 50341.363281
76356.898438 88178.046875 50484.070312
76290.789062 87934.023438 51199.652344
76335.445312 88142.703125 51465.933594
76647.296875 87610.210938 51768.847656
76522.210938 88015.890625 51762.394531
76808.187500 87914.218750 52043.519531
75785.835938 91850.750000 50924.109375
75861.375000 92197.953125 50853.292969
77178.531250 87872.070312 49554.433594
76882.984375 87679.085938 49715.800781
77114.187500 87997.921875 52317.164062
75298.273438 91947.953125 52555.785156
77339.843750 87613.945312 49381.691406
77549.625000 87898.585938 49341.253906
77359.210938 87763.898438 52380.753906
77605.328125 87894.507812 52565.203125
78009.648438 87690.992188 49055.933594
77880.054688 87719.070312 52627.750000
78130.578125 87872.179688 52794.625000
77909.093750 88037.132812 49194.238281
78234.781250 87935.757812 49028.257812
78352.898438 87710.500000 52813.742188
78403.312500 87957.625000 52932.578125
78612.578125 87712.164062 52900.992188
78790.601562 88049.625000 48866.820312
78529.414062 87816.617188 48896.886719
78935.812500 87724.210938 53003.980469
78712.679688 87984.773438 53048.757812
79074.750000 87905.007812 48766.242188
79048.804688 88006.937500 53160.328125
79277.906250 87732.273438 53103.027344
79352.781250 87763.625000 48681.707031
79647.195312 87987.984375 48660.777344
80010.859375 88104.046875 48618.238281
80291.726562 87897.171875 48553.519531
80055.421875 87707.289062 53276.179687
80634.718750 88060.156250 48543.320312
80209.710938 87926.226562 53395.691406
80487.742188 88011.804688 53470.960938
80386.773438 87715.234375 53339.359375
81022.710938 88113.351562 48520.226562
80877.726562 88119.953125 53552.027344
80721.617188 87763.718750 53403.773438
66954.187500 70702.242188 14364.663086
81076.601562 87786.523438 53443.460938
81408.757812 88069.523438 48482.246094
81799.531250 88061.492188 48444.347656
81267.593750 88073.000000 53554.527344
81614.593750 88078.812500 53553.843750
81428.968750 87786.437500 53456.011719
82182.960938 88038.226562 48399.074219
81992.312500 88120.062500 53541.285156
81774.046875 87790.835938 53451.605469
75209.648438 91929.765625 52246.796875
75337.898438 91725.640625 52377.769531
82355.921875 88040.304688 53462.875000
82108.796875 87775.890625 53421.960938
83318.093750 87630.851562 48138.808594
82952.703125 87827.640625 48238.316406
82714.703125 87927.671875 53342.957031
82398.453125 87748.343750 53370.742188
97080.648438 58258.687500 42157.347656
83142.039062 87908.289062 53192.812500
83291.109375 88042.953125 48230.140625
83578.835938 87902.062500 53003.847656
83989.617188 88070.468750 52821.019531
84137.914062 87783.062500 52729.687500
84325.898438 87992.734375 52643.156250
84545.617188 88288.195312 52523.839844
84965.039062 87897.914062 52323.832031
85240.421875 87969.414062 52159.863281
75190.078125 91927.562500 51958.140625
75303.414062 91683.171875 52092.449219
85475.257812 88116.031250 48085.328125
85529.015625 88006.179688 51970.730469
85847.695312 88050.968750 48137.031250
85874.750000 87989.953125 51733.121094
86196.757812 87876.875000 48191.238281
86519.406250 87757.242188 48289.882812
86189.117188 87773.054688 51577.417969
86414.046875 87922.578125 51322.785156
86769.882812 87979.250000 48519.261719
86440.179688 88084.843750 48344.425781
86643.820312 87763.507812 51189.179688
86610.617188 88045.562500 51058.859375
75302.093750 91754.054688 51700.976562
75318.609375 92042.664062 51386.515625
87028.359375 87776.421875 48634.195312
87042.195312 88020.500000 48815.835938
87244.531250 88016.609375 49216.191406
75452.398438 91720.359375 51327.382812
87295.937500 87878.609375 50203.984375
87177.226562 87766.039062 50545.601562
87088.960938 88118.242188 50317.800781
86964.562500 88029.796875 50628.695312
85374.273438 91498.414062 50853.054688
85409.914062 91556.671875 50521.406250
97084.648438 58049.230469 42751.628906
97084.546875 57600.710938 42838.160156
97087.281250 57858.906250 43071.863281
87338.523438 87988.273438 49633.394531
87454.226562 87758.250000 49899.355469
87248.492188 88076.531250 49952.582031
76787.914062 88247.976562 49930.960938
76543.085938 88404.984375 50213.761719
76261.679688 88063.921875 50857.347656
76244.710938 88286.906250 51136.492188
76260.703125 88475.234375 51421.718750
76602.046875 88284.851562 51990.757812
76451.546875 88541.156250 51918.398438
76394.914062 88350.468750 51718.292969
76632.101562 88586.773438 52160.781250
76871.382812 88299.445312 52257.781250
76924.460938 87982.945312 49755.488281
77092.367188 88240.539062 49699.875000
94667.914062 57020.093750 28356.171875
94821.875000 57336.285156 28468.191406
85474.546875 91421.367188 50273.937500
85489.148438 91257.781250 50578.285156
76897.335938 88651.570312 52432.472656
77402.210938 88241.476562 49511.515625
77211.484375 88360.554688 52527.800781
77367.921875 88046.453125 52497.066406
77558.015625 88214.851562 52668.285156
77923.968750 88438.359375 49283.285156
77683.218750 88244.679688 49358.488281
77853.867188 88051.085938 52747.296875
78200.648438 88299.289062 49126.351562
78490.281250 88235.640625 53082.542969
78308.375000 88509.507812 53132.609375
78493.968750 88176.523438 48986.511719
78757.789062 88400.250000 48939.796875
79323.968750 88058.437500 48735.066406
79090.648438 88279.640625 48823.640625
78811.367188 88268.726562 53204.847656
79469.414062 88353.140625 48743.023438
79387.898438 88678.789062 53543.761719
79622.398438 88432.273438 53492.351563
79217.007812 88344.750000 53355.390625
79784.671875 88295.015625 48675.835938
80052.468750 88444.656250 48650.714844
67997.921875 70244.484375 14191.049805
80401.625000 88610.835938 48624.707031
80328.148438 88247.664062 48596.492188
80179.585938 88213.484375 53506.898438
80580.140625 88361.164062 48585.734375
80537.984375 88343.656250 53605.769531
80797.976562 88312.843750 48564.207031
81014.679688 88456.210938 48564.753906
81278.968750 88635.523438 48564.089844
81264.617188 88342.460938 48535.589844
81150.890625 88333.531250 53645.753906
81598.976562 88437.875000 48520.921875
81445.164062 88346.585938 53650.828125
81765.078125 88377.757812 53646.039062
82030.609375 88443.851562 53641.308594
82038.078125 88420.585938 48481.925781
82362.484375 88296.445312 48427.765625
82642.546875 88414.414062 48408.363281
82578.320312 88017.250000 48339.859375
82283.484375 88371.132812 53577.753906
82945.578125 88214.343750 48322.675781
82463.250000 88601.984375 53608.617188
82648.132812 88345.593750 53480.066406
82947.382812 88591.398438 48387.636719
82994.531250 88572.507812 53420.636719
83018.632812 88227.359375 53319.621094
83365.601562 88447.882812 53217.511719
83863.773438 88224.257812 48168.085938
84097.554688 88038.656250 48105.175781
83687.937500 88278.945312 53011.449219
84420.234375 88221.328125 48094.921875
84251.593750 88292.218750 52692.542969
84347.625000 88585.765625 52650.136719
84016.625000 88507.398438 52853.441406
84709.703125 88387.406250 48095.351562
84608.195312 88673.078125 52478.781250
84803.179688 88147.445312 52385.320313
84958.218750 88503.429688 48108.351562
85253.398438 88395.554688 48109.425781
85041.593750 88234.226562 52236.011719
85320.906250 88308.898438 52041.347656
84824.070312 88463.578125 52345.589844
85654.781250 88394.679688 48164.191406
85633.367188 88403.023438 51784.621094
85997.203125 88402.554688 48254.812500
85932.820312 88348.898438 51557.464844
86156.671875 88133.070312 51452.886719
86169.289062 88170.671875 48250.125000
86327.320312 88425.507812 48415.273438
85414.648438 91531.750000 49961.621094
96725.890625 56527.734375 47376.789062
96663.335938 56498.074219 47713.367188
96742.500000 56824.863281 47564.187500
86372.914062 88255.500000 51186.328125
86603.984375 88272.703125 48523.933594
86828.007812 88283.015625 48751.125000
86755.867188 88533.843750 50453.289062
86874.960938 88273.984375 50536.507812
86704.195312 88395.054688 50687.265625
86559.929688 88349.695312 50915.179688
95533.812500 56774.621094 33165.328125
86769.789062 88153.500000 50795.863281
87024.828125 88257.632812 49007.394531
86829.992188 88556.421875 49056.097656
87061.539062 88352.578125 49264.078125
87144.890625 88285.914062 49617.492188
87051.539062 88352.437500 50014.519531
86930.351562 88389.968750 50290.519531
85289.890625 91569.492188 49578.164062
85222.101562 91481.781250 51426.039062
85139.882812 91323.390625 51702.640625
85090.632812 91647.851562 51680.492188
76778.460938 88664.765625 50024.382812
76529.351562 88701.007812 50271.468750
76405.109375 88887.632812 50483.316406
76371.328125 88556.695312 50484.394531
76260.460938 88418.640625 50788.960938
76215.632812 88677.859375 51081.585938
76275.882812 88723.906250 50725.761719
95429.734375 56988.417969 32240.658203
95520.820312 57301.945313 32181.005859
76214.179688 88751.843750 51419.843750
76304.968750 88649.375000 51687.609375
76401.703125 88848.976562 51972.980469
76995.023438 88500.250000 49822.644531
77053.710938 88752.804688 49836.664062
94644.140625 56854.820312 28684.812500
77184.554688 88766.007812 52684.839844
77501.953125 88554.656250 52778.683594
77275.921875 88590.156250 49665.351562
77633.851562 88590.078125 49466.351562
77780.195312 88706.218750 52984.007812
65747.617188 47367.714844 49181.140625
77486.171875 88848.710938 49602.687500
78189.351562 88648.523438 49203.722656
77939.023438 88783.171875 49349.941406
78467.046875 88527.804688 49064.828125
78722.734375 88722.554688 49001.933594
79242.281250 88555.359375 48819.515625
78993.468750 88615.687500 48897.289062
79093.984375 88696.382812 53476.835938
78839.515625 88579.625000 53350.511719
79201.781250 88814.460938 48859.019531
79461.156250 88704.296875 48781.554688
79749.984375 88587.656250 48712.011719
80048.515625 88823.531250 48682.660156
79722.257812 88732.078125 53635.898438
80386.585938 88971.468750 48648.617188
94923.164062 57484.156250 28722.306641
94781.820312 57362.714844 28137.906250
80118.703125 88822.492188 53735.308594
80264.382812 88507.226562 53636.656250
79960.585938 88488.257812 53581.691406
80742.851562 88562.187500 48592.687500
80983.859375 88760.335938 48590.714844
80887.210938 88539.671875 53708.101562
96651.046875 56227.628906 47520.773438
96643.335938 55997.140625 47355.152344
96596.671875 55714.863281 47370.128906
96573.250000 55911.367188 47688.578125
82113.171875 88809.398438 48522.605469
81854.492188 89015.250000 48556.621094
81835.093750 88704.796875 48534.867188
81261.359375 88598.421875 53739.269531
81587.046875 88630.070312 53739.757812
81889.062500 88659.632812 53724.449219
82366.492188 88604.796875 48474.855469
82650.445312 88776.718750 48458.316406
82195.929688 88700.421875 53692.316406
82469.656250 88886.726562 53684.562500
82944.101562 88962.757812 48433.792969
83242.203125 88778.546875 48362.640625
82708.937500 88718.656250 53569.441406
82963.992188 88917.976562 53526.265625
96798.632812 56581.152344 47020.816406
83257.546875 88813.835938 53364.152344
83562.101562 88806.789062 53191.667969
83777.953125 88849.109375 48277.105469
84138.039062 88781.250000 48213.191406
84129.156250 88388.695312 48154.699219
83875.648438 88859.601562 53000.199219
83710.296875 88577.390625 53053.167969
84445.218750 88560.437500 48143.128906
84191.414062 88881.304688 52782.472656
84439.156250 88870.640625 52602.699219
85098.015625 91461.445312 49171.101562
84764.453125 88681.921875 48141.312500
84848.273438 88819.109375 52304.765625
85114.921875 88777.656250 48170.945312
85102.914062 88613.726562 52139.671875
85048.460938 88949.273438 52137.640625
85269.546875 88895.062500 51959.890625
85497.781250 88708.265625 48205.800781
85373.453125 88610.398438 51936.507812
85534.226562 88812.960938 51747.980469
85831.554688 88686.132812 48283.843750
86102.851562 88663.156250 48385.820312
86129.078125 88479.500000 51317.132812
85844.093750 88713.515625 51491.003906
86092.492188 88818.937500 51179.773438
86306.593750 88781.039062 48591.406250
85989.476562 88974.648438 48477.062500
84616.828125 91639.351562 52548.636719
84842.703125 91491.242188 52217.687500
86336.414062 88580.898438 51031.410156
86584.898438 88550.484375 48696.144531
86833.101562 88639.531250 50096.695312
86534.023438 88654.031250 50707.015625
86611.500000 88828.828125 50368.136719
86940.320312 88579.382812 49461.734375
86711.718750 88864.781250 49349.527344
86971.054688 88541.976562 49784.191406
86796.226562 88794.000000 49724.496094
81593.859375 70189.023438 14413.817383
76262.976562 89068.445312 50833.750000
76182.773438 89020.328125 51272.152344
76232.226562 88951.359375 51632.546875
76638.632812 88980.257812 50211.648438
76487.039062 89292.812500 50442.265625
76264.015625 89152.281250 51864.292969
76622.265625 89252.960938 52464.089844
76631.234375 88915.703125 52308.761719
76408.953125 89189.203125 52163.093750
76962.640625 89060.367188 49962.621094
76884.562500 89009.585938 52583.515625
77522.617188 89143.625000 49642.453125
77264.250000 88950.687500 49748.902344
77154.304688 89142.835938 52829.222656
77470.812500 88909.648438 52912.457031
78001.945312 89110.203125 49380.777344
77728.679688 88964.203125 49495.667969
78451.140625 88888.031250 49132.695312
78172.093750 88926.664062 49263.761719
84447.828125 91500.445312 48735.417969
84779.609375 91515.046875 48913.914062
78295.937500 89188.562500 49249.511719
78722.195312 88979.476562 49036.953125
78360.937500 89318.125000 53499.304688
78698.070312 89268.851562 53597.550781
78544.796875 89065.781250 53462.726562
78947.242188 88902.296875 48947.207031
79150.335938 89098.070312 48902.531250
78841.820312 88938.460938 53504.871094
79414.476562 89005.390625 48819.648438
79203.203125 88953.476562 53612.011719
79019.304688 89238.929688 53678.152344
79402.843750 89244.289062 53771.000000
79698.437500 88910.398438 48748.269531
79909.625000 89137.898438 48722.464844
80164.117188 89109.929688 48681.246094
80383.367188 89269.648438 48660.296875
80683.257812 88856.500000 48616.273438
80500.898438 89073.726562 53872.582031
80516.320312 88687.203125 53734.039063
80652.718750 89157.953125 48630.894531
80935.695312 89063.367188 48607.785156
80885.804688 89112.070312 53911.367188
80774.648438 88852.382812 53816.269531
81245.890625 88972.203125 48586.667969
81163.273438 89295.921875 48600.609375
81209.031250 89137.351562 53921.386719
81072.460938 88855.023438 53827.324219
81542.718750 89225.757812 48580.789062
81561.312500 88834.164062 48561.789062
81554.875000 89211.257812 53924.195312
81404.593750 88890.835938 53833.648438
81914.156250 89150.195312 53865.066406
81727.421875 88907.796875 53816.945312
82386.890625 88912.328125 48505.921875
82186.945312 89187.476562 48541.109375
82210.960938 89043.335938 53784.339844
81992.046875 88894.507812 53782.273438
82938.070312 89280.937500 48461.769531
82610.312500 89171.140625 48497.164062
82514.093750 89245.625000 53761.355469
83271.773438 89173.812500 48400.039062
82712.164062 89008.984375 53644.660156
82901.406250 89281.960938 53638.277344
83440.320312 89040.289062 53320.359375
83470.203125 89333.968750 53366.757812
83209.710938 89140.468750 53467.945312
83693.664062 89206.765625 48334.085938
83980.289062 89068.101562 48273.875000
84293.515625 89194.015625 48255.496094
83695.156250 89141.578125 53178.464844
84039.179688 89267.710938 52952.085938
84713.937500 89247.398438 48246.871094
84529.695312 88903.906250 48191.308594
84396.015625 89209.289062 52662.582031
84838.492188 88953.742188 48189.773438
84635.742188 89011.828125 52460.921875
84643.187500 89307.562500 52464.089844
85073.234375 89146.437500 48248.843750
85406.117188 89157.070312 51776.460938
85151.031250 89211.640625 52013.035156
85408.781250 89038.664062 48278.406250
85692.945312 88933.812500 48319.707031
85664.195312 89077.406250 51536.238281
96819.585938 55393.519531 40251.777344
96810.968750 55526.875000 40026.261719
85690.117188 89219.195312 48437.289062
85885.218750 89025.390625 51314.726563
86030.000000 89185.054688 51047.812500
71735.531250 67529.000000 12445.261719
86230.007812 89081.515625 48731.070312
86509.125000 88914.265625 48948.402344
84176.070312 91420.031250 53138.753906
86283.945312 88909.835938 50877.367188
86225.695312 89242.695312 50694.222656
86427.203125 88964.359375 50596.113281
84230.070312 91782.125000 48751.132812
83953.250000 91726.203125 48648.917969
86284.320312 89289.507812 49002.753906
86490.476562 89174.750000 49300.066406
86597.570312 89089.812500 49643.027344
86629.046875 88982.250000 50013.343750
69847.289062 69568.726562 13972.214844
86425.937500 89175.851562 50321.187500
76282.117188 89513.578125 50766.449219
76163.992188 89377.015625 51128.996094
76155.671875 89316.578125 51554.234375
76213.343750 89489.187500 51960.980469
76717.343750 89610.703125 50240.046875
76471.617188 89726.710938 50488.167969
96380.757812 54553.378906 47767.429688
96444.039062 54854.078125 47582.187500
96450.679688 54609.335938 47371.652344
76214.867188 89821.015625 52223.523438
76407.070312 89521.367188 52342.429688
76609.359375 89550.507812 52598.691406
77001.296875 89491.945312 50011.378906
76751.960938 89283.781250 50161.367188
76850.671875 89375.039062 52723.175781
77109.851562 89564.367188 52984.960938
77278.671875 89313.109375 49810.816406
77577.468750 89485.953125 49674.558594
77447.601562 89273.273438 53055.585937
77455.398438 89628.781250 53214.683594
78099.179688 89488.523438 49393.644531
77792.953125 89297.843750 49524.945312
77751.859375 89385.515625 53261.550781
78045.718750 89506.148438 53449.464844
78464.828125 89507.343750 49214.960938
78601.898438 89202.812500 49114.515625
78795.140625 89476.296875 49067.816406
78885.789062 89175.507812 48999.847656
79090.648438 89395.929688 48949.781250
79625.234375 89213.250000 48784.039062
79355.632812 89297.007812 48858.601562
79553.898438 89511.742188 48819.953125
79833.726562 89428.367188 48751.117188
79763.789062 89058.445312 53770.285156
79492.953125 88931.585938 53670.710937
80111.500000 89356.531250 48698.964844
80347.367188 89570.429688 48672.359375
67446.070312 69386.125000 13275.041016
79754.054688 89399.226562 53896.261719
80096.875000 89231.328125 53885.242188
80649.593750 89459.078125 48637.910156
80384.601562 89440.179688 53992.972656
80879.890625 89319.554688 48617.656250
80717.406250 89380.640625 53995.183594
80992.156250 89611.156250 48613.085938
81372.468750 89566.687500 48593.019531
81034.703125 89373.507812 54000.691406
81713.570312 89563.468750 48578.910156
81299.179688 89375.242188 53994.683594
81501.843750 89545.453125 54027.765625
81872.484375 89312.007812 48567.984375
81826.070312 89462.085938 53963.429688
82754.750000 89538.531250 48498.781250
82404.515625 89515.898438 48534.695312
82089.906250 89708.601562 53977.281250
82163.890625 89369.367188 53878.609375
83106.242188 89543.843750 48451.722656
82907.070312 89906.250000 48489.621094
82427.250000 89601.421875 53871.980469
83467.968750 89524.992188 48398.074219
96765.531250 55485.660156 39722.496094
82705.789062 89522.218750 53769.156250
82974.796875 89664.617188 53695.656250
83222.390625 89484.804688 53539.578125
83478.859375 89646.359375 53429.804687
83843.109375 89605.437500 48354.699219
84004.265625 89323.062500 48302.734375
84206.484375 89549.101562 48311.671875
83765.687500 89571.609375 53217.097656
84051.554688 89650.140625 53012.535156
84492.609375 89483.703125 48287.183594
84276.000000 89577.617188 52809.570312
84532.054688 89565.328125 52581.546875
84773.109375 89600.937500 48317.664062
85003.625000 89424.750000 48304.457031
84874.875000 89200.945312 52263.515625
84773.328125 89562.320312 52355.945312
85346.015625 89407.898438 48379.066406
85283.828125 89510.812500 51826.679687
85024.500000 89550.773438 52103.695312
83790.750000 91499.476562 48572.800781
84111.945312 91489.890625 48624.820312
85657.671875 89521.515625 48557.074219
85435.000000 89755.695312 48540.390625
85770.757812 89316.773438 51315.464844
85531.968750 89420.351562 51565.691406
85644.914062 89613.625000 51347.101562
85975.679688 89372.773438 48709.425781
85861.140625 89561.484375 51057.457031
86048.445312 89622.960938 50672.167969
86091.421875 89631.117188 49063.605469
94501.476562 55066.375000 31358.775391
86160.171875 89770.250000 49416.437500
86309.953125 89474.421875 49328.550781
86307.804688 89571.445312 49660.011719
86440.640625 89336.960938 49566.320312
86162.312500 89849.078125 49758.945312
86264.140625 89624.265625 49991.417969
86437.695312 89323.710938 49913.949219
86322.398438 89441.695312 50198.191406
86181.906250 89645.570312 50307.289062
86250.640625 89426.773438 50443.132812
83247.445312 91865.445312 53843.089844
83172.125000 91538.921875 53870.035156
76145.101562 89734.085938 51031.003906
76278.968750 89906.867188 50741.359375
76117.289062 90086.945312 51000.507812
76050.867188 89912.796875 51245.050781
76019.210938 89895.570312 51533.496094
76085.609375 89637.945312 51355.070313
76070.273438 89842.804688 51873.171875
76090.789062 89629.406250 51657.386719
83408.835938 91507.734375 48549.027344
83002.710938 91353.148438 48527.687500
94643.781250 54826.621094 32172.234375
76450.867188 89859.226562 52583.953125
76762.085938 89763.046875 52830.992188
76799.820312 90138.648438 53034.960938
77178.281250 89939.601562 53194.324219
76977.625000 89943.648438 50093.503906
77338.195312 89754.585938 49850.515625
77691.234375 89818.882812 49664.753906
77514.968750 89930.085938 53379.394531
77830.593750 89587.804688 49553.746094
78065.687500 89844.000000 53598.230469
77762.703125 89707.164062 53406.003906
82817.757812 91410.750000 54021.406250
82530.000000 91640.843750 54154.320312
78292.570312 89613.281250 53595.648437
78422.773438 89838.187500 53730.839844
82252.875000 91443.742188 54224.871094
78330.382812 89877.109375 49324.191406
78676.398438 89809.867188 49151.671875
78848.820312 89487.335938 53729.558594
78574.328125 89559.578125 53673.105469
79051.695312 89768.921875 48996.933594
79702.984375 69258.773438 14027.154297
79131.414062 89537.656250 53820.832031
79299.835938 89564.054688 48895.566406
79445.289062 89850.906250 48872.031250
79468.617188 89592.257812 53915.222656
79767.679688 89727.539062 48779.292969
79739.687500 89669.234375 53992.917969
80254.890625 89887.695312 48691.820312
80048.117188 89640.898438 48718.746094
80051.164062 89602.500000 54013.343750
80639.609375 89829.132812 48642.472656
80171.078125 89896.710938 54125.808594
80468.796875 89912.898438 54152.484375
80335.593750 89700.929688 54078.335938
80773.289062 89897.210938 54155.675781
80596.484375 89658.750000 54080.898438
81261.304688 89878.578125 48595.515625
81085.609375 89868.164062 54142.714844
80899.921875 89629.492188 54079.234375
81553.382812 89817.648438 48584.164062
82053.218750 89553.625000 48561.566406
81402.734375 89833.617188 54113.125000
81201.726562 89604.015625 54066.289063
81738.718750 89787.109375 54059.695312
82256.484375 89835.140625 48550.453125
82142.359375 90104.531250 48555.324219
82502.820312 90143.656250 48529.992188
82563.687500 89790.593750 48525.492188
82004.312500 90097.164062 54079.246094
82382.796875 89950.765625 53959.312500
83009.828125 90034.343750 53754.269531
82702.632812 89821.937500 53834.839844
83294.125000 89825.445312 48440.328125
83584.062500 89797.796875 48402.152344
83804.304688 89972.289062 48392.152344
83285.546875 89851.476562 53582.949219
83632.445312 89990.390625 53399.578125
84119.562500 89871.898438 48358.355469
82584.515625 91425.195312 48537.234375
83971.187500 89973.804688 53141.945312
84480.601562 89811.875000 48343.000000
84433.414062 89921.375000 52716.488281
84194.406250 89856.609375 52928.605469
84230.156250 90152.078125 52949.089844
84845.718750 89916.367188 48397.363281
84662.757812 89825.125000 52479.894531
95554.757812 54342.597656 36253.019531
94728.515625 54817.390625 32487.812500
85101.265625 89690.914062 48393.660156
82010.867188 91566.460938 54310.289062
84894.539062 89934.007812 52235.554687
85163.203125 89885.335938 51911.531250
85774.242188 89794.406250 48798.621094
85487.312500 90066.734375 48702.070312
85427.820312 89829.406250 51568.140625
85643.367188 89923.757812 51193.718750
85934.507812 90161.171875 50298.300781
86041.632812 89861.742188 50409.304688
85897.539062 89987.578125 50637.410156
85835.179688 89847.515625 50899.921875
85725.320312 90134.171875 50894.660156
85942.367188 90006.718750 49189.062500
86053.101562 90025.257812 49535.761719
86108.085938 89888.671875 50105.570312
85998.726562 90172.820312 49857.363281
76270.875000 90286.406250 50728.492188
75971.718750 90238.281250 51333.890625
75820.875000 90522.562500 51639.828125
75895.632812 90353.382812 51961.816406
75950.375000 90153.617188 51741.492188
76034.882812 90112.335938 52094.656250
76199.984375 90134.843750 52435.085938
75976.515625 90410.914062 52289.644531
76167.843750 90395.554688 52586.542969
81752.046875 91528.351562 54368.468750
76478.507812 90110.976562 50499.324219
76671.757812 89941.382812 50311.046875
76429.625000 90232.093750 52770.636719
76270.390625 90576.156250 52816.949219
76569.601562 90510.515625 53044.562500
76759.429688 90317.757812 50281.238281
82157.625000 91358.570312 48545.226562
76843.492188 90480.804688 53231.269531
77097.093750 90302.882812 53308.746094
77845.757812 90133.031250 49620.464844
77550.585938 90108.796875 49781.851562
77279.210938 90124.570312 49935.261719
77099.976562 90365.531250 50067.015625
77350.476562 90162.078125 53393.312500
77603.242188 90187.320312 53534.386719
77989.007812 89845.289062 49503.894531
78132.609375 90167.789062 49462.722656
77772.218750 89971.976562 53524.097656
77935.867188 90202.921875 53690.054688
78389.914062 90235.773438 49328.074219
78274.343750 90387.812500 53892.476562
78246.453125 90076.296875 53762.328125
78537.281250 90108.593750 53873.101563
78572.234375 90084.375000 49222.613281
78804.984375 90146.390625 53965.570312
78825.703125 89824.679688 53848.734375
79061.390625 90085.703125 54006.273438
79362.843750 90096.562500 54073.566406
79199.492188 90283.257812 54106.832031
79044.125000 90385.000000 49041.050781
79202.156250 90143.148438 48968.226562
79333.882812 90510.320312 48947.785156
79556.703125 89867.398438 54030.390625
79232.765625 89833.843750 53952.914062
79492.250000 90198.117188 48876.660156
79747.375000 90052.781250 48798.894531
79734.375000 90438.234375 48822.250000
79676.335938 90127.453125 54137.589844
79865.617188 89883.765625 54085.378906
79977.101562 89900.906250 48739.910156
80062.484375 90220.578125 48735.316406
79821.406250 90391.132812 54238.964844
79996.937500 90138.734375 54182.917969
80449.460938 90196.046875 48668.890625
80148.046875 90389.992188 54268.550781
80418.312500 90371.695312 54277.214844
80305.085938 90147.617188 54211.523438
80656.773438 90506.585938 48643.300781
80807.343750 90176.601562 48624.175781
80987.500000 90457.820312 48605.808594
80968.859375 89929.781250 48612.003906
80650.539062 90497.281250 54307.339844
80634.625000 90188.679688 54232.429687
80872.148438 90374.265625 54273.515625
81152.812500 90391.523438 54259.777344
80965.757812 90137.492188 54214.664062
81485.539062 90382.742188 54223.980469
81284.523438 90115.726562 54190.269531
81778.515625 90347.320312 54174.097656
81616.390625 90090.750000 54147.621094
82176.578125 90429.843750 48547.261719
82047.460938 90504.203125 54145.730469
82939.664062 90374.093750 48495.445312
82365.070312 90329.117188 54035.562500
82695.539062 90179.570312 53906.437500
83198.757812 90109.960938 48463.429688
83494.953125 90063.273438 48429.519531
83000.687500 90416.656250 53827.648438
83364.734375 90372.585938 48458.964844
83718.562500 90298.070312 48426.988281
83361.421875 90289.312500 53623.605469
83673.460938 90346.156250 53447.234375
84050.101562 90197.601562 48399.738281
83846.593750 90237.195312 53301.121094
83870.953125 90517.132812 53333.515625
84321.578125 90089.523438 48380.609375
84605.640625 90149.062500 48410.023438
84049.484375 90337.859375 53151.832031
81488.171875 91481.218750 54414.601562
84353.656250 90405.859375 48435.011719
84709.117188 90434.000000 48490.792969
84881.234375 90357.796875 52256.402344
84670.156250 90147.968750 52498.582031
95872.796875 54312.843750 37119.375000
85177.750000 89998.703125 48511.703125
84928.210938 90217.210938 48491.503906
85228.117188 90307.742188 48649.988281
84987.906250 90472.515625 48594.648438
85063.710938 90209.773438 52015.316406
85272.820312 90268.703125 51690.363281
85511.554688 90368.421875 48885.007812
85713.085938 90125.601562 48932.906250
85638.968750 90446.320312 50851.972656
85563.703125 90297.554688 51133.707031
85463.421875 90162.421875 51396.535156
85414.164062 90477.398438 51362.894531
85755.070312 90341.562500 49163.867188
85914.125000 90280.554688 49481.820312
81796.320312 91439.945312 48559.992188
85782.054688 90296.046875 50608.796875
81176.820312 91573.664062 54487.117187
81481.468750 91455.210938 48578.949219
80912.171875 91772.117188 54577.054688
76257.632812 90663.929688 50709.835938
76034.273438 90848.453125 50923.363281
76076.796875 90464.132812 50978.042969
96654.507812 53301.332031 43260.070312
96602.179688 52983.734375 43169.019531
75887.531250 90664.843750 51234.917969
75792.843750 90606.218750 52015.339844
80624.367188 91755.007812 54605.054688
80808.007812 91515.914062 54521.281250
76016.070312 90639.195312 52561.171875
76096.531250 90871.007812 52812.835937
75817.148438 90937.382812 52487.703125
75839.773438 90684.460938 52302.425781
76217.835938 91096.437500 53067.140625
76386.757812 90816.484375 53057.222656
76690.554688 90678.507812 50350.718750
76483.703125 90487.406250 50503.949219
76474.968750 91046.414062 53250.003906
77216.085938 90664.437500 50028.277344
76955.117188 90685.085938 50182.312500
77053.781250 90631.250000 53432.714844
77704.812500 90376.906250 49727.832031
77699.265625 90712.367188 49762.769531
77424.460938 90447.875000 49891.042969
81175.140625 91438.070312 48608.179688
77382.281250 90451.218750 53534.808594
77606.664062 90669.492188 53739.804688
77686.625000 90411.289062 53667.722656
77915.117188 90544.039062 53820.851562
77988.117188 90487.843750 49578.128906
77980.140625 90816.390625 49613.226562
78289.812500 90785.445312 49436.621094
78248.773438 90434.117188 49424.535156
78153.437500 90734.617188 53989.316406
78480.726562 90668.585938 54067.820312
78443.007812 90499.984375 49325.250000
78624.515625 90352.140625 49220.078125
78671.492188 90694.132812 49230.082031
78650.500000 90382.851562 54009.285156
78836.976562 90450.406250 49130.445312
78954.484375 90342.234375 54073.859375
79168.859375 90517.648438 54180.445312
79464.882812 90387.867188 54189.066406
80271.632812 90585.898438 48707.496094
80361.914062 90647.867188 54342.472656
80956.617188 90662.765625 54328.058594
81496.757812 90603.945312 48571.761719
81816.718750 90501.992188 48560.828125
81763.562500 90871.039062 48556.054688
80305.875000 91726.062500 54620.132812
80474.945312 91485.539062 54541.265625
81168.367188 90970.117188 54367.375000
81507.015625 90976.312500 54323.500000
81338.375000 90678.609375 54294.914063
82028.539062 90712.640625 48548.414062
81782.039062 91008.500000 54280.625000
81717.781250 90681.007812 54240.281250
82552.648438 90558.078125 48524.843750
82034.070312 90876.648438 54206.214844
82840.109375 90771.992188 48509.277344
82355.429688 90723.414062 54100.593750
82680.578125 90560.960938 53975.496094
83230.015625 90746.843750 48487.218750
82953.390625 90753.265625 53899.523438
83618.109375 90636.984375 48461.773438
83611.046875 90680.406250 53539.730469
83255.640625 90702.929688 53750.253906
83436.250000 90975.445312 53687.273438
83982.039062 90540.734375 48444.281250
83893.898438 90929.539062 48496.320312
84272.031250 90768.289062 48496.847656
84260.203125 90486.601562 52979.890625
84260.960938 90749.703125 53021.179688
84458.343750 90712.718750 52796.589844
92323.039062 53665.691406 24844.164062
84549.601562 90646.609375 48508.230469
84831.843750 90694.656250 48609.824219
84588.187500 90917.007812 48595.832031
84673.609375 90526.187500 52525.230469
84869.867188 90729.421875 52273.796875
84456.671875 90324.437500 52749.984375
84678.578125 90888.773438 52534.574219
85218.156250 90687.632812 48829.734375
80811.742188 91410.789062 48656.917969
85080.656250 90597.023438 51956.640625
85272.601562 90703.250000 51584.441406
85563.757812 90631.062500 49128.996094
92463.078125 53958.375000 24832.337891
71374.382812 67202.976562 12083.583984
85506.914062 90629.335938 51069.039062
85575.234375 90723.750000 50808.832031
85757.734375 90576.109375 49428.496094
85856.367188 90503.320312 49745.593750
85725.484375 90783.984375 49681.835938
85858.164062 90459.984375 50079.535156
85775.304688 90702.453125 49943.421875
85800.414062 90452.523438 50366.398438
85685.335938 90596.062500 50579.074219
85714.210938 90747.531250 50254.250000
96396.015625 53392.769531 46730.378906
75801.015625 91081.156250 51147.117188
75732.609375 90841.898438 51444.812500
75670.609375 90840.304688 51754.738281
75608.484375 91115.617188 51489.500000
75544.554688 91124.203125 51844.414063
75685.445312 90878.898438 52107.820312
80138.648438 91458.648438 54547.136719
75584.765625 91155.781250 52215.265625
75681.515625 91224.078125 52527.226563
80454.632812 91531.718750 48729.722656
80272.218750 91311.195312 48745.593750
80518.679688 91203.867188 48688.968750
96316.031250 53143.003906 46980.246094
76238.179688 91031.070312 50688.316406
96565.687500 52902.375000 44248.359375
79797.406250 91406.906250 54528.480469
79566.046875 91633.281250 54593.785156
80133.109375 91555.289062 48804.007812
75916.500000 91194.875000 52825.378906
76788.085938 91037.140625 50307.484375
76486.453125 90856.304688 50503.097656
76357.992188 91333.578125 53313.519531
76716.539062 90804.101562 53299.160156
76704.187500 91188.507812 53483.253906
77000.898438 90951.875000 53551.839844
77414.593750 90779.187500 49927.421875
77197.015625 91038.007812 50068.710938
80001.304688 91227.140625 48805.121094
77300.531250 90791.132812 53643.398438
77528.062500 90964.109375 53834.066406
77688.835938 91312.695312 49814.179688
77832.335938 91050.070312 49715.394531
77999.570312 91372.179688 49645.707031
77836.375000 90855.179688 53919.464844
78075.367188 91036.437500 54086.613281
94228.906250 53465.871094 32311.712891
78337.054688 90915.617188 54122.710938
79011.375000 90670.171875 49077.667969
78920.007812 91012.000000 49145.292969
79287.726562 90958.976562 48998.011719
79172.984375 90797.359375 54274.015625
79485.585938 90927.539062 54361.144531
79387.171875 90654.937500 54263.878906
79927.609375 90809.882812 48793.871094
79659.875000 91114.015625 48890.660156
79585.554688 90769.164062 48885.089844
79661.468750 90653.851562 54299.335937
79996.304688 90652.984375 54329.046875
79832.835938 90913.476562 54389.589844
80256.406250 91004.171875 48728.664062
80166.296875 90926.421875 54407.675781
80555.781250 90860.687500 48665.890625
80871.492188 90781.984375 48619.972656
80499.906250 90957.492188 54413.515625
80766.929688 91071.781250 48641.707031
80827.585938 90973.921875 54400.332031
80660.890625 90747.984375 54362.515625
81082.250000 91084.937500 48604.871094
81185.890625 90713.812500 48589.562500
81415.757812 90945.429688 48573.453125
81337.429688 91254.671875 54397.855469
82090.875000 90993.156250 48542.824219
82302.781250 90771.453125 48536.664062
81645.242188 91252.039062 54344.582031
94316.976562 53725.871094 32323.617188
82567.429688 90853.359375 48524.343750
81970.093750 91253.585938 54274.734375
82301.632812 91100.773438 54167.148438
82407.265625 91080.585938 48532.609375
82737.562500 91082.773438 48520.949219
82513.953125 91318.820312 54128.078125
82679.593750 90994.539062 54031.292969
83022.445312 91015.406250 48507.812500
83306.109375 91126.242188 48507.992188
83115.453125 91099.640625 53863.023438
83535.859375 90929.625000 48488.375000
83449.570312 91304.320312 53705.070313
83943.843750 91258.179688 48547.550781
83645.101562 91208.632812 48518.468750
83699.921875 91076.835938 53527.128906
83909.171875 90842.062500 53347.816406
84277.296875 91158.203125 48587.265625
84915.960938 90985.625000 48759.425781
84854.445312 91083.695312 52275.089844
85183.781250 91087.250000 49013.625000
79435.203125 91285.054688 54466.574219
85143.562500 90978.500000 51786.785156
85011.343750 91218.835938 51993.835938
85002.750000 90922.429688 52060.335938
85404.476562 91176.312500 49376.484375
85414.625000 90897.554688 49137.699219
85599.546875 90857.976562 49393.335938
85596.312500 91024.250000 49630.320312
85648.875000 90991.531250 49943.453125
85585.460938 91103.664062 50279.285156
96277.570312 53230.941406 47319.535156
85588.046875 90911.750000 50577.363281
85449.218750 91034.453125 50967.726562
85391.742188 90789.890625 51280.660156
85288.062500 91096.890625 51416.042969
79407.406250 91357.492188 48992.746094
79206.882812 91562.351562 54540.460937
75860.390625 91496.164062 50938.589844
75610.164062 91420.328125 51241.722656
78856.289062 91516.453125 54476.460938
79064.164062 91271.273438 54416.261719
96056.375000 52590.703125 47970.125000
75461.132812 91415.390625 51577.621094
78849.742188 91399.609375 49212.410156
79123.570312 91258.359375 49083.492188
75673.687500 91455.875000 52719.757812
75884.429688 91507.703125 53008.785156
76184.375000 91398.828125 50697.984375
76013.757812 91174.281250 50863.339844
78519.039062 91481.750000 54399.546875
78725.742188 91231.710938 54342.003906
76094.726562 91337.617188 53099.988281
94452.578125 52927.156250 33663.398438
76110.617188 91573.601562 53255.535156
76730.484375 91445.093750 50360.410156
76477.968750 91231.375000 50507.062500
76560.156250 91468.226562 53533.539062
76345.562500 91633.476562 53473.437500
76561.445312 91683.992188 53654.695312
76987.757812 91330.234375 50206.113281
77252.585938 91494.078125 50067.468750
76994.148438 91223.187500 53681.585937
77243.609375 91086.695312 53752.402344
77195.718750 91401.570312 53882.242188
77445.593750 91284.976562 49946.847656
77742.414062 91182.210938 54026.832031
77445.125000 91210.367188 53911.257812
77516.796875 91433.718750 54053.527344
93597.265625 53380.664062 30265.542969
78025.179688 91331.304688 54199.480469
78304.000000 91222.078125 49465.710938
78360.789062 91200.851562 54243.335938
78595.507812 91086.273438 49302.757812
78541.445312 91407.953125 49357.679688
78615.664062 90941.960938 54208.464844
78940.515625 90989.453125 54296.789062
79218.367188 91052.187500 54365.363281
79707.523438 91142.648438 54446.304688
79992.820312 91177.273438 54469.402344
80321.101562 91208.367188 54477.511719
80656.687500 91235.382812 54468.488281
81354.125000 91222.000000 48580.347656
81616.406250 91182.757812 48561.917969
81000.039062 91257.046875 54442.285156
81885.554688 91167.921875 48549.539062
78234.445312 91474.312500 54327.667969
78305.093750 91717.023438 54456.910156
84141.140625 90931.015625 53158.878906
84087.460938 90643.445312 53172.367188
84219.484375 91179.156250 53095.738281
77775.656250 91453.882812 54169.652344
84668.093750 91228.078125 48728.476562
84661.523438 91251.695312 52540.210938
77784.375000 91573.093750 49779.007812
77546.195312 91549.593750 49908.437500
94423.515625 52287.769531 34294.503906
84944.390625 91262.921875 48898.589844
85013.382812 91505.140625 51910.117188
92169.835938 52721.195312 25727.830078
85500.570312 91268.656250 49755.398438
85539.023438 91269.601562 50043.988281
85330.382812 91355.054688 51164.945312
75480.562500 91460.257812 52360.519531
75630.265625 91701.976562 51084.898438
76822.656250 91508.085938 53726.351562
76974.484375 91653.773438 50235.203125
96041.382812 52726.511719 48255.472656
96349.015625 74970.992188 31009.759766
65355.695312 67166.312500 10926.196289
95969.820312 52378.933594 48232.132812
75421.726562 91414.734375 51956.507812
94209.078125 52267.042969 33606.113281
83024.164062 92508.585938 53985.398438
84092.195312 92686.828125 52982.859375
95456.546875 51356.378906 38414.003906
83045.992188 92814.890625 53973.355469
83273.937500 92925.812500 53782.179688
95086.671875 51537.710938 37030.125000
73198.054688 66809.242188 12158.400391
73273.289062 67015.476562 12358.725586
72995.203125 67056.000000 12329.333984
69410.671875 66744.296875 11400.781250
80897.187500 93372.140625 55480.566406
82874.304688 93378.953125 54141.847656
95418.664062 51073.148438 38630.472656
95567.039062 51372.875000 38761.289062
93302.007812 51037.601562 32340.808594
94596.273438 50517.269531 36873.593750
82684.367188 93612.882812 49102.855469
50850.390625 74811.109375 9747.963867
68807.757812 65601.750000 10405.343750
73342.296875 64050.785156 10332.990234
73416.843750 63862.546875 10257.962891
91001.398438 50301.050781 26704.103516
93379.382812 49938.394531 33966.839844
83670.179688 62516.449219 13101.586914
75693.804688 62496.402344 10374.559570
75627.757812 62264.214844 10266.952148
93256.859375 49646.460938 33975.652344
93226.968750 49829.039062 33635.601562
92393.164062 50157.585938 30820.845703
81336.078125 94509.671875 49647.691406
95288.875000 48901.941406 44382.304688
92322.000000 48934.621094 32178.472656
92565.812500 48919.851562 32857.171875
81075.734375 94692.328125 56688.902344
81558.234375 94750.875000 49925.617188
78251.515625 63635.148438 11582.921875
93042.781250 48896.121094 34318.835938
75314.851562 57302.902344 8001.714355
88430.070312 48559.894531 25307.783203
78853.281250 90659.398438 54161.257812
80845.578125 95395.648438 50569.945312
92522.265625 47756.687500 34381.976562
92632.085938 47686.320312 34784.210938
82117.085938 95323.515625 56654.933594
94613.015625 47574.585938 44029.179688
77061.921875 96609.703125 38669.609375
74760.085938 95601.382812 54997.316406
86466.171875 57016.445312 16699.375000
92316.289062 47526.992188 34136.128906
92370.195312 47441.925781 34409.632812
92475.328125 47491.812500 34628.121094
78082.585938 91049.718750 49574.101562
92144.132812 47342.605469 33914.804688
92262.156250 47634.355469 33827.164062
94245.960938 46922.644531 43990.500000
93762.812500 47535.953125 38217.878906
93581.476562 47234.058594 38139.324219
70257.765625 77775.250000 39092.640625
93939.335938 46421.292969 44787.253906
94844.898438 48384.074219 54447.421875
94718.375000 48405.796875 54703.097656
94753.117188 48708.335938 54730.179688
94225.335938 46772.109375 43122.875000
82770.171875 96988.617188 54250.718750
92298.695312 46793.777344 35142.234375
88936.281250 45778.156250 29719.029297
95488.546875 53023.582031 36896.582031
95502.015625 52759.597656 37139.820312
88724.460938 45659.011719 29597.843750
62475.242188 51438.625000 14985.654297
87988.437500 45053.835938 29471.777344
87725.968750 50366.531250 22304.193359
90653.640625 43925.148438 35700.292969
76320.726562 97967.375000 52286.371094
76368.937500 97938.843750 57001.000000
86548.695312 49744.734375 21828.761719
86739.015625 49733.257812 22035.138672
81220.125000 98043.742188 53556.886719
81514.281250 98189.289062 57273.878906
82335.007812 98143.375000 54578.289063
82765.281250 98183.906250 55696.289062
82781.148438 98013.328125 56227.531250
82789.789062 97749.546875 56495.753906
82568.968750 98080.320312 56542.882812
75750.617188 98691.203125 53438.554688
75718.242188 98341.335938 56295.796875
75951.078125 98272.023438 56598.644531
76228.789062 98282.882812 56831.855469
90636.867188 42976.453125 37961.156250
90734.210938 43160.179688 37743.261719
79747.062500 98774.812500 57414.507813
80634.531250 98345.031250 57442.496094
80683.773438 98560.906250 53616.214844
90874.882812 43229.597656 38003.648438
81011.476562 98309.570312 53618.945312
80990.750000 98421.656250 57347.117188
81188.250000 98471.171875 53852.082031
81416.281250 98477.109375 54015.527344
81716.906250 98405.578125 57059.648438
81343.125000 98442.898438 57228.285156
81690.070312 98450.718750 54212.246094
81601.570312 98260.992188 53981.089844
82161.273438 98075.453125 54321.496094
82016.851562 98380.156250 54462.226562
82017.906250 98495.351562 56772.953125
82498.375000 98181.812500 54849.097656
87213.367188 49365.449219 22943.593750
82265.054688 98420.585938 54820.152344
82501.296875 98359.898438 55166.976562
89558.257812 42942.261719 35343.503906
82547.156250 98432.562500 55847.179688
82591.046875 98290.109375 56209.792969
82375.656250 98542.039062 56181.125000
82427.156250 98365.617188 56433.625000
89740.875000 42980.964844 35646.277344
82609.210938 98355.851562 55509.609375
82736.343750 98195.640625 55982.601562
75457.203125 98766.007812 54118.335938
75466.757812 98846.562500 54452.781250
89310.023438 42806.550781 35122.144531
75321.617188 98713.804688 54733.296875
75473.281250 98854.914062 55028.300781
78185.664062 49312.839844 14968.226563
75398.507812 98705.523438 55303.492188
75611.625000 98918.484375 55384.886719
75500.390625 98685.968750 55607.875000
76270.320312 98870.648438 53260.933594
76052.148438 98973.390625 53598.101563
75693.382812 98989.351562 54211.566406
75720.609375 98881.750000 53850.878906
75966.101562 99108.640625 53992.832031
75824.406250 98954.609375 55804.652344
75915.656250 98733.437500 56244.781250
76498.257812 98673.281250 52909.722656
76425.781250 99108.367188 53521.058594
76922.937500 98837.515625 52954.527344
76645.398438 98976.437500 53215.722656
90499.718750 41641.378906 41483.160156
90654.382812 41657.441406 41812.980469
76781.625000 98629.000000 57041.144531
77224.375000 98700.914062 52750.574219
77030.617188 98495.398438 57212.917969
77131.312500 98744.218750 57152.093750
77521.625000 98794.093750 52809.742188
77321.765625 98963.617188 53013.355469
77684.726562 98950.843750 52968.906250
77474.945312 98751.460938 57253.238281
77287.093750 98499.085938 57293.613281
77817.046875 98740.375000 52763.488281
78006.625000 98914.984375 52951.921875
77864.375000 98649.117188 57367.019531
77561.625000 98481.062500 57364.281250
78291.117188 98901.515625 52977.394531
78306.726562 98658.929688 57424.906250
78571.140625 98786.695312 52923.871094
90901.125000 41888.664062 41817.566406
90846.648438 41711.636719 42113.144531
78932.554688 98687.148438 52928.839844
78806.843750 98934.335938 53124.605469
79047.460938 98828.031250 57425.828125
79135.125000 98866.257812 53156.207031
79003.281250 99079.203125 53332.796875
79267.281250 99024.523438 53360.156250
79350.375000 98818.835938 57421.562500
79460.156250 98843.054688 53251.546875
79789.179688 98844.929688 53394.042969
79526.554688 99064.718750 53505.578125
80129.414062 98836.828125 57358.515625
80119.343750 98815.859375 53524.800781
79889.289062 99079.890625 53678.828125
80203.890625 98977.742188 53720.656250
80421.476562 98869.039062 57299.406250
80728.156250 98720.156250 57287.046875
80416.921875 98793.960938 53660.761719
80647.257812 99013.843750 54002.214844
80674.789062 98817.445312 53828.679688
80900.710938 98882.218750 54029.984375
80596.828125 99052.562500 57141.984375
80945.867188 98627.328125 53827.261719
81179.171875 98699.531250 54043.230469
81120.921875 98712.718750 57171.121094
81141.539062 98982.210938 54309.042969
81448.046875 98717.539062 54261.828125
81448.625000 98710.281250 57017.894531
81465.257812 98969.546875 56771.390625
81738.718750 98730.859375 56793.554688
81737.062500 98884.726562 54727.894531
81735.851562 98689.726562 54488.363281
81978.726562 98682.710938 54768.160156
82175.054688 98698.812500 55153.257812
81859.507812 98935.484375 55009.339844
82166.937500 98817.015625 55506.632813
81950.546875 98982.867188 55357.203125
89675.359375 40449.230469 42584.703125
81972.468750 98755.710938 56527.894531
82131.976562 98765.789062 56233.308594
82219.406250 98549.367188 56484.402344
81720.171875 98972.179688 56518.609375
82390.281250 98584.898438 55500.433594
82242.148438 98745.937500 55853.937500
75920.914062 99188.335938 54331.015625
75683.765625 99051.375000 54535.101562
89279.921875 39820.699219 43233.828125
75683.890625 99073.859375 54846.437500
75901.390625 99234.703125 54651.980469
75700.101562 99069.234375 55136.269531
75893.789062 99185.000000 55412.539062
76265.492188 99211.773438 53836.472656
76181.210938 99297.445312 54148.164062
76421.062500 99367.609375 54013.203125
76143.351562 99363.546875 54460.734375
75931.648438 99273.140625 55003.621094
76109.109375 99395.773438 55255.347656
76198.765625 99397.109375 55592.679688
