1230
68539.101562 46554.453125 62878.503906
68871.765625 46355.140625 62915.824219
69144.562500 46285.367188 41977.402344
88186.992188 46460.460938 66615.726562
82596.273438 72939.835938 48570.589844
82423.070312 72824.804688 48792.203125
82282.921875 73113.093750 48683.027344
70609.757812 46342.316406 63653.296875
70923.296875 46453.839844 63811.878906
71241.492188 46591.605469 63968.203125
71223.414062 46245.277344 63795.753906
71529.640625 46389.152344 63944.867187
71770.789062 46207.875000 63922.035156
71857.101562 46472.398438 64058.867188
72220.328125 46523.121094 64156.355469
72525.140625 46573.070312 64233.917969
72524.664062 46264.554688 64099.023438
72796.679688 46469.007812 64231.605469
73113.500000 46410.675781 64252.195312
73437.375000 46416.019531 64295.199219
74010.734375 46327.410156 64309.445312
73668.023438 46206.722656 64224.707031
73715.593750 46451.867188 64340.992188
74506.898438 46184.132812 42380.628906
74724.007812 46325.839844 64363.343750
74397.218750 46330.386719 64340.910156
74850.718750 46326.988281 42398.363281
74646.062500 46232.597656 42649.363281
74652.601562 46208.472656 42944.738281
74879.828125 46322.507812 42762.140625
74608.382812 46103.468750 43542.539062
74924.210938 46256.304688 43404.214844
74703.375000 46191.742188 43231.742188
74845.937500 46095.316406 64253.687500
75031.281250 46289.949219 64369.574219
75166.562500 46450.917969 42256.769531
75390.750000 46538.929688 42465.953125
75120.835938 46433.285156 42589.511719
75326.750000 46508.535156 42744.804688
74906.429688 46298.574219 43082.929688
75132.062500 46415.343750 42907.839844
75406.484375 46513.843750 43019.226562
75180.203125 46392.515625 43231.378906
75193.257812 46346.843750 43528.968750
75545.304688 46510.976562 43416.000000
76306.968750 72874.601562 55036.777344
75310.421875 46215.339844 44307.535156
75218.953125 46247.605469 44037.781250
49653.519531 85227.781250 66676.875000
49893.898438 85143.187500 66868.796875
75698.945312 46491.820312 43839.253906
75353.562500 46361.015625 43785.675781
75578.937500 46309.625000 44362.066406
75839.492188 46458.484375 44210.726562
75498.820312 46349.667969 44091.085938
79591.640625 72530.789062 52182.652344
79279.882812 72618.929688 52306.203125
79351.453125 72762.578125 52054.753906
75297.523438 46249.550781 64371.046875
76041.078125 46364.847656 44790.984375
76054.390625 46469.859375 44483.695312
75787.757812 46334.511719 44564.429688
76293.445312 46387.074219 45022.015625
52901.613281 46657.847656 48120.792969
53189.464844 46681.582031 47945.550781
52985.375000 46971.957031 47853.792969
52751.402344 46593.054688 50781.996094
52969.535156 46707.414062 51039.425781
53404.023437 46874.687500 47700.394531
53275.882812 46738.191406 51243.953125
53687.500000 46678.726562 47677.292969
53754.707031 46911.789062 47495.781250
53777.027344 46491.578125 51204.945312
53533.347656 46658.015625 51284.417969
54073.964844 46893.679688 47352.925781
53958.644531 46661.683594 47544.417969
54265.089844 46638.980469 47405.125000
54383.972656 46881.093750 47224.332031
54372.203125 46561.433594 51628.527344
54403.031250 46719.703125 51897.328125
54761.015625 46696.996094 52097.472656
54937.421875 46633.277344 47129.800781
54688.625000 46889.519531 47103.007812
54582.820312 46626.562500 47269.343750
55095.386719 46616.582031 52177.109375
54984.800781 46772.894531 52390.242187
55295.425781 46654.363281 52383.382812
55534.867188 46677.464844 46941.312500
55486.101563 46694.257812 52586.757812
55836.445312 46858.464844 46822.765625
55763.726563 46632.640625 52639.179687
55943.683594 46720.289062 52902.562500
55553.078125 46824.441406 52866.707031
55801.886719 46901.625000 53150.503906
56189.660156 46816.285156 53190.472656
55951.867188 46987.703125 53373.734375
56963.628906 46467.515625 52910.136719
56723.085938 47219.683594 46591.457031
56558.468750 46907.347656 46703.523438
56945.355469 46979.953125 46629.847656
57274.238281 47052.324219 46551.574219
57210.296875 46701.792969 46665.929688
57509.839844 46860.164062 46565.269531
57136.761719 46792.050781 53523.054687
56845.562500 46938.207031 53651.824219
57165.417969 46974.113281 53824.144531
57886.105469 46812.578125 46487.984375
78933.343750 73139.945312 51839.222656
79142.679688 72950.625000 51951.074219
78882.726562 72988.203125 52092.003906
57746.363281 46686.390625 53592.582031
58184.734375 46424.230469 46540.859375
57998.976562 46725.675781 53767.308594
58119.531250 46865.390625 54055.320312
58288.101562 46645.808594 53791.152344
49909.156250 85045.203125 66533.359375
58319.882812 46767.035156 46385.003906
58690.621094 46770.156250 46262.531250
58466.929688 46749.085938 54064.882812
58379.003906 46944.003906 54338.242188
59073.890625 46792.316406 46112.710938
58683.031250 46808.464844 54320.003906
58622.484375 47018.449219 54644.199219
59455.582031 46821.480469 45959.324219
81369.031250 72195.304688 50738.882812
81559.304688 71930.109375 50883.703125
81324.906250 71984.375000 51133.695312
58916.761719 46828.386719 54557.984375
58903.746094 46978.679688 54827.542969
59805.226562 46840.246094 45825.441406
59095.449219 47015.519531 55117.988281
59400.472656 46928.636719 55367.257812
59152.496094 47174.152344 55482.292969
59410.257812 47091.671875 55697.410156
59643.621094 46850.195312 55607.464844
60023.984375 46598.363281 45897.210938
59828.972656 46789.218750 55821.457031
59643.937500 47001.996094 55907.402344
59877.246094 46887.093750 56095.070312
60127.406250 46759.894531 56298.988281
60155.375000 46896.785156 45672.789062
60501.710938 46834.710938 45612.546875
60808.859375 46966.164062 45450.476562
60419.671875 46869.910156 56892.605469
60157.414063 46930.890625 56612.027344
61093.015625 46690.058594 45548.730469
61215.503906 46963.695312 45356.015625
60685.437500 46718.074219 57044.570312
60888.398437 46480.003906 56991.535156
61606.183594 47010.855469 45234.769531
61138.503906 46697.734375 57507.921875
61797.000000 46713.195312 45348.773438
62043.199219 46901.027344 45181.453125
61836.789062 46634.050781 58033.445312
61942.097656 46835.859375 58311.292969
62188.558594 46514.410156 58183.437500
62311.613281 46688.476562 45214.335938
62407.339844 46925.246094 45066.781250
62605.996094 46648.738281 45145.441406
62427.410156 46617.656250 58478.503906
62784.484375 46938.804688 44944.535156
63165.804688 46860.628906 44866.601562
63504.171875 46867.398438 44751.902344
63283.089844 46788.613281 59495.457031
63494.980469 46754.101562 59699.667969
63722.285156 46624.101562 44829.460938
63834.078125 46874.921875 44632.734375
64158.292969 46848.152344 44533.265625
64030.023437 46625.054688 44733.046875
64313.972656 46606.300781 44645.003906
64066.292969 46493.695312 60077.808594
64512.101563 46794.183594 44425.371094
64831.085937 46636.089844 44415.765625
65013.714844 46409.257812 44511.324219
64698.363281 46850.390625 61028.000000
65017.480469 46546.441406 61023.132812
65286.039062 46862.050781 43974.648438
64856.488281 46914.183594 44153.765625
65124.828125 46639.152344 44279.312500
65456.871094 46562.621094 44180.945312
65662.085938 46712.882812 43922.128906
67653.421875 53724.148438 30680.564453
65861.906250 46841.117188 43654.675781
65560.156250 46932.957031 43731.566406
66230.265625 46727.535156 43562.863281
49655.804688 85138.531250 66418.765625
66016.710938 46966.332031 43388.148438
66268.601562 46908.492188 43299.265625
66162.398438 46702.875000 61779.437500
66422.000000 46794.421875 61967.972656
66510.242188 46774.781250 43316.601562
66959.554688 46610.625000 62162.292969
66704.062500 46873.277344 62164.019531
67031.234375 46771.175781 42912.503906
49779.308594 84998.203125 66195.203125
49484.621094 85136.671875 66228.125000
67264.078125 46650.671875 62343.320312
67187.359375 46940.347656 42462.726562
67180.664062 46807.101562 42717.757812
67482.890625 46730.367188 42577.382812
67560.960938 46682.566406 62506.425781
67782.835938 46745.968750 42274.039062
68357.460938 46542.402344 42152.101562
68844.273438 46638.746094 63060.222656
69504.648438 46526.992188 63299.535156
69166.789062 46500.097656 63129.117188
69310.406250 46745.976562 63337.812500
69003.695312 46894.308594 63282.437500
69303.960938 47017.015625 63495.472656
69572.531250 46812.246094 63496.921875
69804.242188 46566.761719 63457.824219
69932.656250 46887.457031 63696.011719
70340.359375 46815.960938 63815.062500
70127.414062 46564.949219 63594.386719
70643.796875 46645.835938 63826.687500
70404.648438 46532.132812 63684.527344
49551.863281 85023.929688 66010.539062
70941.750000 46827.703125 64010.246094
71262.609375 46881.273438 64119.812500
71571.859375 46745.906250 64124.085938
72730.531250 46747.804688 64348.507812
73031.914062 46909.386719 64472.199219
72984.671875 46638.542969 64336.308594
73400.867188 46922.031250 64527.597656
73256.539062 46660.171875 64384.359375
73574.562500 46668.511719 64427.128906
73743.812500 46919.933594 64566.636719
74095.679688 46900.867188 64594.039062
73895.593750 46644.695312 64449.816406
74452.664062 46856.457031 64607.144531
74587.179688 46574.054688 64478.617188
74238.367188 46604.566406 64462.792969
74799.656250 46799.683594 64612.332031
87407.859375 46362.480469 66201.117188
87277.476562 46471.765625 66475.273438
75601.046875 46611.214844 42727.144531
75639.031250 46627.308594 42395.031250
75674.914062 46614.417969 43057.562500
75832.257812 46679.800781 42185.695312
76120.921875 46781.894531 42273.613281
75876.976562 46712.101562 42514.136719
76174.187500 46815.425781 42628.648438
75912.914062 46717.636719 42867.390625
75923.656250 46688.496094 43231.035156
76247.125000 46827.644531 43025.644531
77902.507812 72026.765625 54531.976562
77908.546875 71837.851562 54871.398438
77580.281250 72108.632812 54779.859375
75952.054688 46643.214844 43598.652344
76314.312500 46750.207031 43772.343750
76473.640625 46859.542969 43502.414062
76224.257812 46780.664062 43400.113281
75847.140625 46548.804688 64587.390625
76025.632812 46765.687500 64719.902344
53189.929688 47428.835938 47439.609375
52897.539063 47581.578125 47486.937500
52920.957031 47313.136719 47658.851562
52732.300781 46925.457031 51186.597656
53040.695312 46969.230469 51413.640625
53204.507812 47160.941406 47613.671875
53441.058594 46860.238281 51502.632812
52908.281250 47274.062500 51742.777344
53298.300781 47107.468750 51765.578125
53879.238281 47144.828125 47292.304688
53520.347656 47204.335938 47423.800781
53719.148437 46957.121094 51822.136719
53490.617188 47254.179688 52127.113281
53175.609375 47311.496094 51981.324219
53844.902344 47111.636719 52155.941406
53791.367188 47326.820312 52476.878906
54132.199219 47099.000000 52345.484375
54423.582031 46893.335938 52204.109375
54098.710938 46918.402344 52018.269531
54488.484375 47123.324219 47062.742188
54189.628906 47127.042969 47171.753906
54695.039062 46878.164062 52373.390625
54184.371094 47293.156250 52720.246094
54778.703125 47151.085938 46957.375000
54851.441406 46982.625000 52672.933594
54950.730469 46933.691406 46997.804688
55131.992188 47181.335938 46852.128906
55217.808594 46822.921875 46966.261719
55224.113281 46818.800781 52641.851563
55182.828125 47001.812500 52941.328125
87108.304688 46622.582031 66772.046875
77328.726562 72083.312500 55143.492188
77648.429688 71859.156250 55153.453125
77413.453125 71851.539062 55458.996094
77658.804688 72251.843750 54414.589844
77413.578125 72348.578125 54544.199219
55491.292969 47017.265625 46834.250000
55144.726562 47199.382812 53253.492188
55457.250000 47244.992188 53517.183594
55472.312500 47034.535156 53186.066406
55707.523438 47062.628906 53371.429687
55869.542969 47169.988281 53618.742188
55645.960938 47389.082031 53838.171875
55938.105469 47626.191406 46559.703125
55806.289062 47258.894531 46700.332031
56190.351562 47383.371094 46609.695312
56430.542969 47203.027344 46635.527344
56167.351563 47043.363281 46716.445312
56201.660156 47017.402344 53529.929688
76808.640625 72250.750000 55500.250000
76899.351562 72030.226562 55776.347656
76635.390625 72216.117188 55777.683594
55976.339844 47335.703125 53917.101562
56166.011719 47183.250000 53773.234375
86917.437500 46532.183594 66467.351562
56283.476563 47309.847656 54007.414063
56504.507812 47105.132812 53785.691406
56886.187500 47132.847656 53967.796875
57039.781250 47267.589844 46525.917969
57333.253906 47344.382812 46432.792969
57590.335938 47125.894531 46452.246094
57245.699219 47162.242188 54140.488281
57488.957031 47290.902344 54419.250000
57598.894531 47085.980469 54162.015625
57745.078125 46888.281250 53913.496094
57439.121094 46989.054688 53948.933594
57801.644531 47172.132812 54382.925781
58151.265625 47038.484375 46323.449219
57898.132812 47215.105469 46322.367188
58199.750000 47307.683594 46170.085938
58080.691406 47062.605469 54354.464844
57870.000000 47015.808594 54172.117188
57750.882812 47347.394531 54613.687500
57945.906250 47395.882812 54783.558594
58012.343750 47237.789062 54589.953125
58525.367188 47355.093750 46009.113281
58448.785156 47059.363281 46208.933594
58291.187500 47134.570312 54597.453125
58192.390625 47320.496094 54822.605469
58446.859375 47215.304688 54837.933594
58395.078125 47405.761719 55095.808594
58802.125000 47089.238281 46053.425781
58867.039062 47396.519531 45832.058594
58721.695312 47187.804688 55026.484375
59198.722656 47144.457031 45856.140625
59144.324219 47444.050781 45675.226562
58909.820313 47243.527344 55312.015625
58660.132812 47418.277344 55340.218750
58904.843750 47415.269531 55587.546875
59593.554688 47090.605469 45736.613281
59179.710938 47346.312500 55807.792969
59437.855469 47249.050781 56008.878906
59676.507812 47148.074219 56206.828125
60072.273437 47218.496094 45480.519531
59881.480469 47068.437500 45646.722656
59916.109375 47034.824219 56402.117188
59711.082031 47336.714844 56534.363281
60148.464844 47133.183594 56872.480469
60331.718750 47137.359375 57112.324219
60371.769531 47349.363281 57404.109375
60610.902344 46992.882812 57274.113281
61010.691406 47238.527344 45235.976562
60692.242188 47230.417969 57622.871094
60964.054688 47163.675781 57822.683594
60907.375000 46952.746094 57549.550781
61306.714844 47211.000000 45188.910156
61886.488281 47247.050781 45034.531250
61657.675781 46907.945312 58158.386719
61591.644531 46717.621094 57923.062500
61406.242188 46921.710938 57970.535156
62172.046875 47464.734375 44839.074219
62201.046875 47150.734375 45005.726562
62488.507812 47210.246094 44889.105469
61741.175781 47187.324219 58487.324219
62083.984375 47237.546875 58814.230469
62057.925781 46991.277344 58555.628906
62799.277344 47269.574219 44754.242188
62555.597656 47511.828125 44692.062500
62348.531250 46911.027344 58716.480469
62645.972656 46670.070312 58719.835938
62189.191406 46774.441406 58447.390625
62407.550781 47168.546875 59027.832031
49179.679688 85331.359375 68381.273438
49351.832031 85375.640625 68153.992188
49456.929688 85140.218750 68382.257812
62699.230469 47822.144531 44436.253906
62849.667969 47517.367188 44577.808594
62648.558594 46913.320312 58984.828125
62892.437500 46878.050781 59180.664062
63051.152344 46957.800781 59432.894531
62713.457031 47188.386719 59332.976563
63001.652344 47223.828125 59666.945312
63263.570312 47000.097656 59713.304688
63611.824219 47125.378906 44531.867188
63373.488281 47371.148438 44444.539062
63294.171875 47113.378906 44668.425781
63025.652344 47104.531250 44774.449219
63964.089844 47125.875000 44382.457031
63511.914062 46985.964844 59983.308594
63768.468750 46694.480469 59956.535156
63574.503906 47234.785156 60318.636719
63735.203125 46947.785156 60203.132812
64205.535156 47231.562500 44169.871094
64270.488281 47024.816406 44341.460938
63869.046875 47056.027344 60465.859375
64033.328125 47194.683594 60764.023438
64144.121094 46886.117188 60582.683594
64336.066406 47022.882812 60887.003906
64443.843750 46699.941406 60689.089844
64492.566406 47090.785156 44167.410156
64390.953125 47301.160156 43990.882812
49212.054688 85265.125000 66287.250000
49429.308594 85267.117188 66484.468750
64785.437500 47172.789062 61338.933594
65094.656250 46871.171875 61310.656250
65291.851563 47134.832031 43635.605469
64967.511719 47271.074219 43664.503906
65023.281250 47091.632812 43870.367188
65099.691406 47208.367188 61548.828125
65367.175781 47006.765625 61556.445312
87072.054688 46425.960938 66137.437500
65673.929688 47084.878906 43446.363281
65650.765625 47277.093750 43137.347656
65408.738281 47274.148438 43331.546875
65888.953125 47134.375000 43216.171875
65934.304688 47251.070312 42961.109375
66139.187500 47073.960938 43129.789062
66163.453125 47016.656250 61960.335938
66175.414062 47338.707031 62162.152344
66438.742188 47108.968750 62156.191406
65895.789062 46909.921875 61763.292969
65879.445312 47240.226562 61956.414063
86741.117188 46665.210938 66742.718750
66748.828125 46829.613281 43051.175781
66582.531250 47030.195312 42845.085938
66422.898438 46972.683594 43080.171875
66579.476562 47174.683594 42558.164062
66273.164062 47183.500000 42810.593750
67271.039062 47263.242188 41707.867188
67457.867188 46919.566406 42246.265625
67013.398438 46924.175781 62356.542969
66739.789062 47224.621094 62381.296875
67687.414062 46946.820312 41970.945312
67334.507812 46946.632812 62532.066406
68023.546875 47176.734375 62985.933594
67935.203125 46904.640625 62794.207031
67753.710938 47143.902344 62838.980469
67811.453125 46711.175781 62637.515625
67639.101562 46940.226562 62675.582031
68268.015625 46884.074219 62935.875000
68624.273438 46898.585938 63107.871094
68715.140625 47229.042969 63348.035156
69585.835938 47155.445312 63704.066406
69305.367188 47266.058594 63646.027344
69420.421875 47412.429688 63785.472656
69051.554688 47251.292969 63520.492188
69921.859375 47244.234375 63896.187500
70175.632812 47076.105469 63899.347656
70447.625000 47110.335938 64015.148438
70631.320312 46908.691406 63963.535156
70758.976562 47143.226562 64131.042969
71111.210938 47160.574219 64235.804688
70864.453125 47456.734375 64345.285156
71153.132812 47425.292969 64402.835938
71634.796875 47301.800781 64439.785156
71722.718750 47013.566406 64295.203125
71440.750000 47069.847656 64263.160156
72017.078125 47153.421875 64432.894531
71956.445312 46795.164062 64232.082031
72361.460938 46863.386719 64343.816406
72401.734375 47218.644531 64536.675781
72693.593750 47040.425781 64487.886719
72935.914062 47178.187500 64594.687500
52690.890625 47496.652344 51902.468750
52399.109375 47627.828125 51880.300781
86543.273438 46610.062500 66419.429688
86763.015625 46508.488281 66208.671875
53208.898438 47436.785156 52202.539062
52948.988281 47474.562500 52061.058594
53023.105469 47618.503906 52354.144531
53382.878906 47518.046875 52481.214844
53128.957031 47721.738281 52627.312500
53767.578125 47602.660156 47056.695312
53470.503906 47532.816406 47230.027344
53728.398438 47368.710938 47218.281250
53388.539062 47722.992188 52852.835938
53633.652344 47537.835938 52719.250000
53883.171875 47469.175781 52795.511719
53994.542969 47368.945312 47108.777344
54091.664062 47624.539062 46929.199219
54302.402344 47365.625000 47001.753906
54575.070312 47341.234375 46929.179688
54470.355469 47628.558594 46819.007812
54832.593750 47450.878906 46811.953125
54383.660156 47370.707031 53006.738281
54470.453125 47509.816406 53311.285156
54619.128906 47320.246094 53094.660156
54449.593750 47721.640625 53661.816406
54766.000000 47757.515625 53923.082031
54767.082031 47553.089844 53589.046875
55216.324219 47589.027344 46676.808594
54861.941406 47173.828125 53017.207031
54823.746094 47357.949219 53303.113281
86776.101562 46486.980469 65930.414062
55138.894531 47678.667969 54011.585938
55009.851562 47573.863281 53775.144531
55082.203125 47400.414062 53541.667969
55446.496094 47321.546875 46736.187500
55599.445312 47572.675781 46622.929688
55299.765625 47479.628906 53793.339844
55475.906250 47595.253906 54060.554687
55809.492187 47522.960938 54113.687500
56290.175781 47708.113281 46486.480469
56088.648438 47459.824219 54145.164062
56349.000000 47488.722656 54286.746094
56644.457031 47749.054688 46416.882812
56520.101562 47459.753906 46542.843750
56839.058594 47490.644531 46483.253906
56609.546875 47307.289062 54124.855469
56938.292969 47323.414062 54264.000000
57110.371094 47502.300781 46424.593750
56398.937500 47713.121094 54613.886719
56767.855469 47672.191406 54681.371094
56679.687500 47499.609375 54419.347656
57344.308594 47663.003906 46285.433594
57627.761719 47434.441406 46307.093750
57194.039062 47349.488281 54390.277344
57287.019531 47479.464844 54599.554687
56995.632812 47500.050781 54526.312500
57088.328125 47680.015625 54795.070312
57926.812500 47534.554688 46147.109375
57531.832031 47453.156250 54659.941406
57407.761719 47609.187500 54817.175781
57521.308594 47723.890625 55015.878906
57714.445313 47545.949219 54870.308594
75891.039062 71882.695312 57189.425781
76171.781250 71795.656250 57010.800781
58245.628906 47588.832031 55245.890625
58070.062500 47702.925781 55284.507812
58268.257812 47724.882812 55455.191406
58432.531250 47566.148438 55358.742188
58578.515625 47683.871094 55657.035156
58929.269531 47623.695312 55924.687500
58977.527344 47885.664062 56333.023438
59233.050781 47524.578125 56145.160156
49268.613281 85110.398438 65993.828125
49464.921875 84973.445312 65791.812500
59486.816406 47383.082031 56282.976563
59379.718750 47656.000000 56515.863281
59189.613281 47942.542969 56646.535156
59405.035156 47892.410156 56850.945313
59932.960938 47464.347656 45356.562500
59937.386719 47738.363281 45186.125000
59911.050781 47364.851562 56848.878906
59966.285156 47157.574219 56654.507812
60119.542969 47359.656250 57114.003906
60260.613281 47628.804688 57593.195312
60509.777344 47522.277344 57743.773438
60615.019531 47660.761719 45071.417969
60889.789062 47497.152344 45107.167969
60984.109375 47794.828125 44931.105469
60794.542969 47415.195312 57914.789062
60944.347656 47577.441406 58203.199219
61023.953125 47327.578125 58038.273438
61771.066406 47581.058594 44879.996094
61523.636719 47370.089844 45050.937500
61397.863281 47698.843750 44899.460938
61182.953125 47468.816406 45066.136719
61440.667969 47146.085938 58211.308594
61429.160156 47362.464844 58401.710938
61232.328125 47580.015625 58440.710938
61525.898437 47531.304688 58629.566406
61802.617188 47456.941406 58784.996094
61995.656250 47542.187500 59021.812500
62222.425781 47588.832031 59259.609375
62230.839844 47383.343750 59077.742187
62503.761719 47570.125000 59500.937500
62780.195312 47426.460938 59639.171875
63100.386719 47647.140625 44361.625000
85485.601562 70849.578125 47562.500000
85173.226562 71153.281250 47728.976562
85436.484375 71222.429688 47402.738281
48929.011719 85250.140625 66097.968750
63076.242188 47337.875000 44604.085938
63458.382812 47612.281250 44186.175781
63106.195312 47770.710938 60322.753906
63328.171875 47792.816406 60579.992188
63321.187500 47527.832031 60327.527344
63693.949219 47370.402344 44284.585938
63796.753906 47594.335938 43989.316406
63960.425781 47359.968750 44158.199219
64087.117187 47687.343750 43661.894531
64141.632812 47445.675781 43956.375000
86511.570312 46571.609375 66070.187500
63870.156250 47555.246094 60917.953125
64224.992188 47352.312500 61069.097656
64140.000000 47700.812500 61270.277344
64407.070312 47467.953125 43754.601562
64498.605469 47480.191406 61376.054688
64716.289063 47476.730469 43513.500000
64879.253906 47632.851562 43099.558594
64556.714844 47689.609375 43277.468750
86772.390625 46516.714844 65569.164062
87017.945312 46415.742188 65801.476562
64696.367188 47237.281250 43881.011719
64646.335938 47684.859375 61620.753906
64844.382812 47458.468750 61579.140625
65097.628906 47381.054688 43384.292969
65315.203125 47472.656250 43030.304688
65613.367188 47117.636719 61751.035156
65692.039062 47574.515625 42483.132812
65396.410156 47623.199219 42647.652344
65661.046875 47431.195312 42817.230469
65558.632812 47841.460938 62190.996094
65882.000000 47586.351562 62178.503906
65976.937500 47547.058594 42292.136719
65969.273438 47391.933594 42635.085938
66266.789062 47518.144531 42093.835938
66564.593750 47338.105469 42218.449219
49233.515625 85014.265625 65735.773438
66441.039062 47387.953125 62325.238281
86529.054688 46571.144531 65787.546875
82641.695312 60198.203125 65215.667969
82418.523438 60411.613281 65186.218750
66895.023438 47458.484375 62597.316406
67094.625000 47221.636719 62560.828125
67157.195312 47504.734375 62755.636719
66880.992188 47753.335938 62772.980469
67218.945312 47776.136719 62954.281250
67445.054688 47251.882812 62751.492188
67728.304688 47447.117188 63002.906250
68808.546875 47607.738281 63630.367188
69175.328125 47506.101562 63733.839844
82736.382812 71520.718750 49792.308594
82764.156250 71299.382812 50042.515625
82526.523438 71529.734375 50054.277344
77612.867188 71316.171875 56152.011719
77780.015625 71407.335938 55801.851562
77858.281250 71191.523438 56073.144531
69656.617188 47468.902344 63919.750000
70220.351562 47331.207031 64060.523438
69957.898438 47554.960938 64093.113281
70270.726562 47614.183594 64247.253906
70526.703125 47388.234375 64200.007812
70567.890625 47670.750000 64386.527344
71372.750000 47568.257812 64544.128906
71679.289062 47566.003906 64609.097656
71580.976562 47816.882812 64742.726562
71940.148438 47711.898438 64745.621094
72171.656250 47451.871094 64630.886719
71885.812500 47436.082031 64570.988281
72326.945312 47718.703125 64809.078125
86620.703125 46650.019531 65214.164062
86955.632812 46518.410156 65226.722656
73225.687500 47185.007812 64636.699219
73569.460938 47189.117188 64679.933594
73922.640625 47192.574219 64719.679688
74073.773438 47526.152344 64901.156250
74322.390625 47189.574219 64758.171875
74429.914062 47468.308594 64905.171875
75045.750000 47554.207031 65002.386719
75202.828125 47808.156250 65141.472656
76289.000000 47336.308594 65019.578125
76058.046875 47057.800781 64865.664062
53116.492188 47773.843750 47239.125000
52657.675781 47695.406250 52179.839844
52785.109375 47856.468750 52571.054688
52720.621094 48069.421875 52922.414062
53490.523438 47827.945312 47028.902344
53828.289063 47915.097656 46849.363281
53530.910156 47833.214844 53176.386719
53322.632812 48042.242188 53401.351562
53642.859375 47921.144531 53431.054688
53842.097656 47757.019531 53282.125000
53901.726563 47891.542969 53575.089844
53613.632812 48086.414062 53713.378906
54481.644531 47920.781250 46670.722656
54195.324219 47889.707031 46754.921875
54155.500000 47712.031250 53437.796875
54091.425781 47537.187500 53077.203125
53979.140625 48023.941406 53867.765625
54362.253906 47945.644531 53985.847656
54170.738281 47857.207031 53707.945312
54824.828125 47827.566406 46647.171875
54665.277344 47959.355469 54190.558594
54972.625000 47874.417969 54225.367188
77495.929688 71495.328125 55990.417969
55209.886719 47964.632812 46525.828125
86274.093750 46659.722656 66207.789062
55469.863281 47813.179688 46551.429688
55725.031250 47826.085938 46514.187500
55313.488281 47792.386719 54275.359375
55151.199219 47990.652344 54492.218750
55590.429688 48106.589844 46419.601562
56020.343750 47995.078125 46411.945312
55649.277344 47715.613281 54321.406250
55337.648438 48114.390625 54757.492188
55689.050781 48017.246094 54771.183594
55488.570312 47907.457031 54529.117188
55777.738281 47832.453125 54547.714844
56017.207031 47656.671875 54393.785156
56422.113281 48014.765625 46346.824219
56029.378906 47882.101562 54715.167969
56335.753906 47974.851562 54946.472656
56799.121094 48064.710938 46244.324219
56680.929688 47959.957031 55033.601562
56602.710938 47826.503906 54834.421875
56986.023438 47741.320312 46349.457031
57510.714844 47938.593750 46081.406250
57290.824219 47771.437500 54984.710937
57666.054688 47699.132812 46155.531250
57921.230469 47915.953125 45922.472656
57402.546875 47925.839844 55234.429688
57779.343750 47760.171875 55193.410156
58247.371094 47610.976562 45968.960938
58328.210938 47890.714844 45751.011719
78765.132812 70969.664062 27730.816406
78586.054688 70991.015625 27616.177734
57992.996094 47893.949219 55495.402344
58267.957031 47898.363281 55690.878906
58055.292969 48050.667969 55739.789062
58233.289062 48091.527344 55916.824219
58590.046875 47646.046875 45790.449219
58641.496094 47927.496094 45577.335938
58448.457031 47932.324219 55877.136719
58453.757812 48097.527344 56097.050781
58680.953125 47883.656250 56022.871094
59367.617188 47803.351562 45330.781250
59224.191406 48015.453125 45257.308594
59147.078125 47821.187500 45409.531250
58933.347656 47989.539062 45398.855469
58941.449219 47691.152344 45594.726562
59368.203125 48161.671875 57149.027344
59643.343750 47858.992188 57117.019531
59581.531250 47971.917969 45159.531250
59953.035156 48078.511719 44998.226562
59865.363281 47796.496094 57322.000000
59878.203125 47597.128906 57095.734375
60276.167969 47859.953125 45034.812500
60283.265625 48206.484375 44868.460938
59699.125000 48087.902344 57466.421875
60029.726562 47850.039062 57579.210938
59967.808594 48162.335938 57858.222656
60308.691406 47839.964844 57870.851562
60491.937500 47921.054688 58133.542969
60629.535156 47686.453125 58029.152344
60613.335938 48019.000000 44891.707031
60523.023438 48108.585938 58337.312500
60725.683594 47863.386719 58284.136719
61276.562500 48033.378906 44762.621094
61667.628906 47945.027344 44718.203125
61988.589844 47764.988281 44727.164062
61657.777344 47752.582031 58929.066406
61849.191406 48125.152344 59393.703125
61938.183594 47813.316406 59211.117188
62382.941406 48152.164062 44373.109375
62306.871094 47793.273438 44612.066406
62702.480469 48139.921875 44214.882812
49157.183594 84883.796875 68808.210938
62966.402344 47985.820312 44168.089844
63264.636719 47868.320312 44066.613281
62713.738281 47675.500000 59811.089844
62907.031250 47736.910156 60074.800781
62959.734375 47483.343750 59886.144531
63526.550781 47797.796875 43948.730469
63405.015625 48040.980469 43770.695312
63571.183594 47540.308594 60608.175781
63721.078125 47858.019531 43720.851562
63627.730469 48069.585938 43525.535156
63565.773438 47836.035156 60859.738281
86206.570312 46686.371094 65862.578125
63898.324219 47956.945312 43428.460938
63804.175781 47965.605469 61185.421875
64093.421875 48033.242188 61477.074219
64234.648438 48070.871094 42938.695312
64246.195312 47849.230469 43278.281250
64539.355469 47862.148438 42991.359375
64824.750000 47866.753906 42716.171875
64922.195312 48025.882812 61993.996094
64900.035156 47725.921875 61790.089844
65110.453125 47687.437500 42781.718750
65689.875000 47734.960938 42160.156250
65460.246094 47736.371094 42358.820312
65144.035156 47857.687500 42430.957031
65893.218750 47942.234375 62418.328125
66208.273438 48047.761719 62639.992188
66247.531250 47680.820312 62416.382812
66618.109375 47567.992188 62526.335938
66522.093750 47879.671875 62679.273438
67415.554688 47550.800781 62910.335938
67524.687500 47766.636719 63101.210938
68091.304688 47484.628906 63204.542969
67837.812500 47752.898438 63250.445313
67632.031250 47975.441406 63295.554688
67883.468750 48036.589844 63466.816406
68153.695312 47801.218750 63441.750000
68434.031250 47531.464844 63402.523438
68461.609375 48095.972656 63790.644531
68732.968750 48035.988281 63874.937500
68466.015625 47868.074219 63639.289062
69085.109375 47829.367188 63897.027344
69393.703125 47669.605469 63930.644531
69674.562500 47775.980469 64114.507813
69683.718750 48043.003906 64289.312500
70003.093750 47890.042969 64319.410156
70331.445312 47846.363281 64416.000000
70558.601562 47947.585938 64561.347656
70838.843750 47776.062500 64538.574219
70803.664062 48029.996094 64691.167969
86398.257812 46661.355469 65509.585938
71077.125000 47631.222656 64512.054687
71163.929688 47936.902344 64724.488281
72519.250000 47996.765625 64992.410156
72919.953125 47990.054688 65032.789062
72728.429688 47665.597656 64831.558594
73347.015625 47967.378906 65062.835937
73383.632812 47721.281250 64934.468750
73132.406250 47709.921875 64902.253906
74012.312500 47898.890625 65086.660156
73661.843750 47721.175781 64961.683594
73695.546875 48020.160156 65122.761719
73724.992188 47424.101562 64815.097656
73389.828125 47483.453125 64810.039063
68987.078125 51592.332031 33530.570312
53010.085938 48401.917969 46848.894531
48730.941406 85157.921875 65857.648438
49008.089844 85093.695312 65812.664062
52672.960938 48256.871094 53253.226562
52967.574219 48243.257812 53489.433594
52933.429687 48422.964844 53798.820313
53374.625000 48314.472656 46763.046875
53231.039062 48082.332031 46972.179688
53247.265625 48247.402344 53726.246094
53528.367188 48080.679688 46852.839844
53721.574219 48279.714844 46671.972656
54020.859375 48125.738281 46674.585938
53745.082031 48220.046875 54045.093750
53850.671875 48357.234375 54339.218750
54081.492188 48162.742188 54171.750000
54078.332031 48412.347656 46509.140625
54304.195312 48141.589844 46599.007812
54445.164062 48380.902344 46452.894531
54629.585938 48127.437500 46542.457031
54793.378906 48377.605469 46399.136719
54427.996094 48154.367188 54361.984375
54806.675781 48073.464844 54443.140625
54935.152344 48123.843750 46495.621094
55206.933594 48328.953125 46368.640625
54988.835938 48194.398438 54710.542969
54836.023438 48399.593750 54924.511719
55162.500000 48323.085938 54970.148437
93732.648438 46519.882812 65856.257812
93806.718750 46747.644531 65960.515625
77242.726562 71203.023438 56742.152344
77187.500000 71035.945312 57052.496094
76906.179688 71278.976562 56994.160156
55915.234375 48386.570312 46257.652344
93634.914062 46284.417969 65749.789062
56245.585938 48254.835938 46271.093750
56520.812500 48275.183594 46209.769531
55948.394531 48117.597656 55006.218750
55901.972656 48387.191406 55342.449219
56309.425781 48357.093750 55432.289062
56196.714844 48193.324219 55190.449219
48827.820312 85051.218750 65657.476562
56337.273438 48559.007812 46099.011719
56791.359375 48442.457031 46052.054688
56502.300781 48145.328125 55220.007812
56708.714844 48306.351562 55482.222656
56796.722656 48090.714844 55236.175781
56832.710938 47811.160156 54885.191406
57024.058594 47911.281250 55076.398437
57071.183594 48132.347656 55376.484375
93458.710938 46000.625000 65638.406250
93181.109375 46218.191406 65912.250000
57428.070312 48188.097656 55582.433594
57900.609375 48342.566406 45674.972656
57499.253906 48469.050781 45783.531250
57632.238281 48174.082031 45897.125000
57683.929687 47980.242188 55433.816406
57636.972656 48344.828125 55875.117187
57797.183594 48118.886719 55673.394531
58168.628906 48129.804688 45675.164062
57961.050781 48235.312500 55918.203125
57839.039062 48462.406250 56130.699219
58184.535156 48318.515625 56171.921875
58288.230469 48386.582031 45462.296875
59003.578125 48256.699219 45209.746094
58657.042969 48242.207031 45371.984375
58668.996094 48072.011719 56254.734375
58479.003906 48272.132812 56339.023438
58733.453125 48207.921875 56488.363281
58531.898438 48415.738281 56564.476562
59326.558594 48274.488281 45080.996094
58981.894531 48157.871094 56682.074219
58741.988281 48418.160156 56767.089844
59036.597656 48363.257812 57009.445312
59401.804688 48389.082031 57476.707031
59162.312500 48614.496094 57474.406250
59358.261719 48643.371094 57741.246094
59999.640625 48403.164062 44846.097656
59665.316406 48323.003906 44959.136719
84134.695312 68558.070312 28733.025391
59633.214844 48398.753906 57760.875000
59806.191406 48449.925781 58007.484375
60606.691406 48413.781250 44736.359375
60039.531250 48390.257812 58173.304688
60778.203125 48079.328125 58518.980469
60937.214844 48185.449219 44763.113281
60946.335938 48492.046875 44650.066406
61491.441406 48488.933594 44530.179688
61477.703125 48219.617188 44639.937500
61750.933594 48274.984375 44544.875000
61368.332031 48056.937500 58954.187500
61477.351562 48289.070312 59222.804688
62026.968750 48049.121094 44566.496094
62056.632813 48366.613281 44396.472656
62113.402344 48198.125000 59682.414063
62188.687500 47860.539062 59468.457031
62677.445312 48628.328125 43849.546875
62368.207031 48720.636719 44021.308594
62556.968750 48408.746094 44111.796875
62668.402344 47954.835938 60019.746094
62440.179687 47904.230469 59742.679688
62406.082031 48206.839844 59968.714844
62641.777344 48236.613281 60234.636719
62880.390625 48309.894531 43953.261719
62945.542969 48562.593750 43656.535156
62880.781250 47996.753906 60282.554688
62863.488281 48270.343750 60494.894531
48576.640625 85064.820312 65642.218750
63160.574219 48304.199219 43707.742188
63416.949219 48275.308594 43479.414062
63135.210938 48105.519531 43937.238281
63425.183594 48500.882812 43204.175781
63709.300781 48230.941406 43234.687500
63326.304688 48370.242188 61041.992188
63522.070312 48106.957031 61035.062500
63318.312500 48071.667969 60805.136719
63615.496094 48301.914062 61264.078125
64005.593750 48070.941406 43158.453125
63860.531250 48237.375000 61432.734375
63754.105469 48553.398438 61549.816406
64064.472656 48343.941406 61661.148438
64500.062500 48088.773438 42657.828125
64181.562500 48310.289062 42646.792969
64325.343750 48453.195312 61909.726562
64737.003906 48333.402344 42079.460938
64783.902344 48097.339844 42373.476562
83403.468750 70835.773438 49792.246094
83630.148438 70736.484375 49636.386719
83503.328125 70578.992188 49983.664062
64448.394531 48353.843750 42327.480469
64620.757813 48246.789062 61966.000000
64593.589844 48566.019531 62145.414062
64932.468750 48383.425781 62225.093750
65248.738281 48100.742188 62208.839844
65573.164062 48176.687500 62419.539062
65559.671875 48448.535156 62592.078125
65886.429688 48317.691406 62665.851562
92799.335938 46137.148438 66013.492188
80939.460938 70774.171875 53134.164062
81147.718750 70740.546875 52956.593750
81151.562500 70550.296875 53169.945312
67600.125000 48223.386719 63455.015625
67301.210938 48088.250000 63206.628906
67345.492188 48385.363281 63441.527344
67195.164062 48694.824219 63583.546875
67563.507812 48516.179688 63645.703125
68199.421875 48129.785156 63688.570312
67868.164062 48327.695312 63664.539062
69042.351562 48127.019531 64072.148438
69370.375000 48013.128906 64139.070312
69528.062500 48244.644531 64358.753906
70249.492188 48111.378906 64557.054688
69858.968750 48272.988281 64512.687500
48930.316406 85091.328125 68763.460938
48951.660156 85313.851562 68555.945312
70559.750000 48268.492188 64764.550781
70909.156250 48246.203125 64854.105469
71221.562500 48321.437500 64969.710938
71545.351562 48464.265625 65113.386719
71535.015625 48135.542969 64924.523438
92999.875000 45955.554688 65801.898438
92676.898438 45895.785156 65874.937500
92509.703125 46047.300781 66048.851562
71815.953125 47992.152344 64892.218750
72134.585938 48002.875000 64946.660156
71896.257812 48292.644531 65076.636719
48658.183594 85309.039062 68704.773438
48427.195312 85197.695312 68883.445312
72306.859375 48291.363281 65131.851562
72695.093750 48292.242188 65176.085938
73918.476562 48202.980469 65241.414062
75054.726562 48074.710938 65268.593750
48401.191406 85201.953125 65886.843750
53258.953125 48546.121094 46655.902344
53024.882813 48721.937500 46622.429688
52535.359375 48935.484375 54365.496094
52878.699219 48773.980469 54353.582031
52673.683594 48737.761719 54149.570312
52914.074219 48593.574219 54084.906250
53382.156250 48788.835938 46464.835938
53199.734375 48428.484375 54012.765625
53167.464844 48608.902344 54289.585938
53493.820312 48438.187500 54235.132812
53383.554688 48635.613281 54474.265625
53495.691406 48507.882812 46602.328125
53740.972656 48612.328125 46475.789062
53458.289062 48279.945312 53945.398438
53664.117188 48566.804688 54542.937500
53994.300781 48484.261719 54614.839844
54344.613281 48832.796875 46234.824219
54043.453125 48741.304688 46337.378906
54296.488281 48600.449219 46367.089844
54578.414062 48623.953125 46309.488281
54132.605469 48302.839844 54426.187500
54316.625000 48380.664062 54640.367188
54188.757812 48595.738281 54874.257812
54398.066406 48698.906250 55116.277344
54515.398438 48490.546875 54894.078125
54952.101562 48687.671875 46227.585938
54592.519531 48832.195312 55381.632813
54882.546875 48693.242188 55336.140625
54705.308594 48603.792969 55136.867188
55002.511719 48517.683594 55160.750000
55375.867188 48640.230469 46205.734375
55223.402344 48963.023438 46054.222656
55542.808594 48274.367188 55062.648438
55158.906250 48641.449219 55390.824219
55355.683594 48781.855469 55650.835938
55492.996094 48532.925781 55384.835938
55603.875000 48867.964844 46061.992188
55683.828125 48607.632812 46187.773438
55946.328125 48739.609375 46078.710938
55598.937500 48925.964844 55925.382813
55968.714844 48821.566406 55914.867188
55735.507812 48671.433594 55650.167969
56458.542969 48538.382812 55699.816406
57001.589844 48697.910156 45846.433594
57157.925781 48450.636719 45930.996094
57265.582031 48653.945312 45776.257812
57057.277344 48367.875000 55665.562500
56593.558594 48742.218750 55989.402344
56769.968750 48517.121094 55759.902344
57206.757812 48908.714844 45652.246094
57324.222656 48430.261719 55839.707031
57749.574219 48714.421875 45531.460938
58050.066406 48606.507812 45450.347656
57458.000000 48608.710938 56120.187500
58025.480469 48541.449219 56339.277344
57762.953125 48688.000000 56368.476562
58054.617188 48706.761719 56570.476563
58632.925781 48758.734375 45107.160156
58301.843750 48745.601562 45258.160156
58534.656250 48527.367188 45264.562500
58282.597656 48492.472656 56459.347656
58406.976562 48656.082031 56772.390625
58801.437500 48507.187500 45158.683594
58898.226562 48737.035156 45014.527344
58740.347656 48673.824219 57096.945312
91720.296875 46198.785156 66375.460938
59168.101562 48852.300781 44888.804688
59097.769531 48531.234375 45035.839844
59409.972656 48575.832031 44921.550781
58916.441406 48783.218750 57414.835938
59013.355469 48575.421875 57251.707031
59197.289062 48422.890625 57270.734375
92308.359375 46185.550781 66219.937500
92013.421875 46069.402344 66204.500000
59749.527344 48666.195312 44808.894531
59295.066406 48932.265625 58028.578125
59582.757812 48657.699219 58006.304688
59080.453125 48856.585938 57695.250000
59821.519531 48639.460938 58224.402344
60419.941406 48722.929688 44672.210938
60277.957031 48484.210938 44763.625000
60073.128906 48613.503906 58422.789062
60304.390625 48357.988281 58379.367188
60787.054687 48789.445312 44592.472656
60575.234375 48332.710938 58576.414062
60691.007813 48594.273438 58879.269531
60829.925781 48287.597656 58733.203125
61192.789062 48708.222656 44530.363281
61094.128906 48371.671875 58996.742188
61012.460938 48757.386719 59236.296875
61217.335938 48355.789062 44644.164062
62073.675781 48662.132812 44233.914062
61788.335938 48577.832031 44399.734375
62087.183594 48942.632812 44067.992188
91357.984375 46046.218750 66304.953125
91703.007812 45930.664062 66145.882812
91403.523438 45794.019531 66050.757812
62294.203125 48467.222656 44231.933594
61956.460938 48737.812500 59961.437500
62148.761719 48485.429688 59944.144531
61840.812500 48538.250000 59709.617188
62165.351562 48754.332031 60167.742188
62761.664062 48864.449219 43561.863281
63004.929688 48732.476562 43422.386719
62629.699219 48788.062500 60653.917969
62854.066406 48545.472656 60700.410156
62629.238281 48516.207031 60447.015625
63086.148438 48309.875000 60756.816406
63070.652344 48584.343750 60947.847656
63403.402344 48757.523438 42944.214844
63185.972656 48745.660156 43204.527344
63188.039062 48519.183594 43443.613281
63072.777344 48835.910156 61127.832031
63239.324219 48641.835938 61154.007812
63452.445312 48589.292969 61314.671875
63624.320312 48759.691406 42689.843750
63660.953125 48503.804688 42941.113281
63883.769531 48528.121094 42671.273438
63829.804687 48772.300781 42451.753906
63510.812500 48842.417969 61530.593750
64107.332031 48567.253906 42397.074219
64029.976562 48828.804688 42197.191406
64037.828125 48671.625000 61841.128906
64328.496094 48622.332031 42119.843750
64624.382813 48623.019531 41848.015625
64311.023438 48783.890625 62095.601562
64803.519531 48680.710938 62338.339844
65290.011719 48409.890625 62430.304687
65063.773438 48670.421875 62475.410156
65366.968750 48681.328125 62641.851563
65684.867188 48657.562500 62788.355469
66034.750000 48622.414062 62941.148438
66255.445312 48333.621094 62856.496094
66433.476562 48591.375000 63121.054688
66979.046875 48185.851562 63110.476562
66735.132812 48086.703125 62921.382812
66757.734375 48370.722656 63130.628906
67064.726562 48398.558594 63306.632813
68112.726562 48427.406250 63852.039062
68445.343750 48343.789062 63949.511719
68822.945312 48363.753906 64133.066406
69209.015625 48373.714844 64309.644531
69533.335938 48501.781250 64534.082031
69251.773438 48695.191406 64544.105469
70187.796875 48448.589844 64750.464844
69838.609375 48660.214844 64756.800781
79901.210938 70290.703125 55076.414062
80098.359375 70228.023438 54914.136719
80103.062500 70087.382812 55129.980469
91371.304688 56043.363281 46745.867188
91519.476562 56194.703125 46474.886719
91449.812500 55839.964844 46486.148438
70475.140625 48653.609375 64965.832031
70830.281250 48723.964844 65100.140625
70747.757812 48470.609375 64943.703125
71214.843750 48686.246094 65166.292969
70980.945312 48484.765625 65011.023438
71591.843750 48772.980469 65284.406250
71816.328125 48584.453125 65225.406250
72115.968750 48567.589844 65258.691406
91152.093750 45870.832031 66157.148438
90995.679688 46011.875000 66309.445312
73099.679688 48293.296875 65217.160156
73540.101562 48308.855469 65266.656250
73842.179688 48441.519531 65367.644531
53397.828125 49146.980469 46233.886719
53019.160156 49044.898438 46404.648438
53147.843750 48798.937500 54568.601562
53173.066406 49023.253906 54902.582031
53734.691406 48937.507812 46287.105469
53774.882813 49286.695312 46065.039062
53813.890625 48730.277344 54861.199219
54077.722656 49036.792969 46163.031250
53530.375000 48927.402344 54977.601562
53773.359375 48968.148438 55160.605469
54441.105469 49118.910156 46061.050781
54085.675781 48810.929688 55111.562500
54036.683594 49014.421875 55352.363281
54310.480469 49035.308594 55509.757813
54287.164063 48875.621094 55294.691406
54631.375000 48860.675781 46178.562500
54831.121094 49039.515625 46057.105469
54950.402344 48877.386719 55602.484375
90776.765625 46182.839844 66474.523438
55200.089844 49048.500000 55927.367188
55523.984375 49255.171875 45854.843750
55863.738281 49031.511719 45932.789062
55984.625000 49323.437500 45741.960938
56265.613281 48981.695312 45881.785156
56395.906250 49314.621094 45661.429688
90656.390625 45940.199219 66236.718750
90433.640625 46151.289062 66448.335938
56661.437500 49095.726562 45720.968750
56273.761719 48722.984375 55878.933594
56249.722656 48922.054688 56121.324219
55855.031250 49097.761719 56227.851562
56278.027344 49168.878906 56446.164062
56680.257812 49106.820312 56478.453125
56845.691406 48885.636719 56240.968750
56529.457031 48967.660156 56254.582031
57450.687500 48743.433594 45648.746094
57519.062500 48971.906250 45490.136719
57031.335938 48626.125000 55976.601562
57169.273438 48809.375000 56251.656250
57074.621094 49040.136719 56519.246094
57436.718750 49083.839844 56726.562500
57442.550781 48861.457031 56431.343750
57809.449219 49023.867188 45335.765625
57758.625000 48900.804688 56641.613281
58009.519531 48839.417969 45342.375000
58134.042969 49101.191406 45160.039062
58079.718750 48911.402344 56857.335938
57766.316406 49110.199219 56931.832031
58074.828125 49129.398438 57152.113281
58466.621094 48996.222656 45070.898438
58463.750000 49335.210938 44944.500000
58353.570313 49152.875000 57392.339844
58389.640625 48920.675781 57103.859375
58803.132812 49041.210938 44935.765625
58645.875000 48956.191406 57373.265625
58607.835938 49173.085938 57641.996094
59111.890625 49171.011719 44808.007812
59397.632812 49090.199219 44763.207031
90277.914062 45948.921875 66230.617188
90096.156250 46142.609375 66430.335938
58905.804687 49149.781250 57907.105469
59478.804688 48830.445312 44814.476562
59687.410156 48981.699219 44731.957031
59404.507812 49084.261719 58318.890625
59594.472656 48874.281250 58259.984375
59936.195312 48891.156250 44709.398438
59621.800781 49074.804688 58502.871094
59841.718750 48849.953125 58457.656250
59368.054688 49292.660156 58528.769531
59662.175781 49302.847656 58771.699219
60220.992188 48990.730469 44640.031250
59932.503906 49148.992188 44653.140625
59851.011719 49046.792969 58660.148438
60085.707031 48856.386719 58659.875000
60360.617188 48886.781250 58886.523438
