1230
40894.160156 43504.519531 30650.615234
54316.425781 68053.218750 35546.339844
57899.097656 51011.425781 33732.746094
35330.589844 24187.041016 63017.863281
28845.406250 31238.105469 54688.320312
29212.703125 46919.308594 47377.910156
48984.910156 41879.039062 37941.511719
29915.472656 73979.960938 38667.625000
29251.158203 69504.140625 35428.664062
58162.328125 49631.632812 31292.662109
30540.867188 40325.960938 35470.156250
52648.199219 44713.988281 26732.509766
57847.257813 62536.925781 16811.542969
21701.435547 49539.195312 32757.925781
58825.519531 60531.496094 40574.281250
34425.738281 40031.777344 37903.140625
44860.171875 71731.265625 27658.587891
29150.408203 40100.300781 57759.195312
29150.267578 41211.546875 34924.632812
28789.281250 71593.968750 36962.101562
43652.449219 45962.039062 24394.943359
50834.496094 70533.664062 28481.667969
36612.339844 59159.386719 21413.726562
36778.906250 64546.648438 25139.703125
29751.330078 74041.257812 49006.355469
40516.503906 36751.246094 54235.792969
34122.421875 30287.962891 62713.648438
30464.250000 68955.656250 34551.269531
29038.613281 73195.562500 49126.253906
36782.410156 74870.343750 37457.222656
54579.957031 46459.398438 41487.503906
33787.070312 30463.810547 62514.761719
49806.398438 79575.914062 50368.843750
35546.593750 65592.492188 27437.792969
26827.855469 30897.898438 56665.273438
36255.214844 55816.511719 23684.060547
50120.183594 77238.257812 47027.218750
38869.789062 79762.093750 53010.550781
39311.636719 69171.023438 27502.833984
31312.105469 40700.457031 57561.097656
51325.019531 44940.843750 25844.820313
33234.453125 30124.921875 54562.593750
41799.976562 46177.906250 24640.841797
48670.332031 42364.527344 33995.507812
42414.570312 80397.984375 44077.347656
47712.613281 44776.191406 48957.789062
57407.078125 51127.468750 41007.691406
58850.898437 55721.347656 43694.890625
41040.210938 81087.687500 46204.132812
31178.667969 25869.925781 66182.117188
27203.271484 48688.199219 46652.828125
23429.656250 45579.023438 34987.808594
57138.714844 50613.039062 39786.246094
31420.974609 43331.660156 53761.000000
46307.386719 72392.476562 29024.878906
27420.656250 34922.101562 60015.429688
25839.773438 50346.859375 46740.375000
34384.539062 78801.000000 48152.554688
53988.699219 67253.937500 25126.572266
57018.910156 65999.750000 39042.175781
35776.859375 74715.843750 37820.253906
24447.755859 33874.238281 65654.375000
58386.957031 52549.914062 31546.960938
48868.078125 74146.531250 36387.460938
25278.423828 71479.820312 42393.835938
30589.445312 22573.830078 65815.328125
25863.570313 47089.492188 32520.482422
34477.437500 42146.371094 57566.476562
25579.496094 31933.560547 61544.738281
59377.566406 64422.316406 43080.539062
42229.421875 47161.843750 23043.718750
55717.996094 48263.425781 41278.210938
39709.816406 81582.976562 49399.742188
51867.859375 78009.835938 62298.386719
32820.058594 35812.453125 59127.078125
43682.718750 75703.203125 35456.578125
30966.726563 22504.722656 66257.750000
57677.929688 66061.757812 51071.464844
30185.457031 55304.347656 27868.095703
56591.535156 68961.382812 54588.335938
48606.214844 49040.730469 16685.714844
44617.164062 71559.414062 27329.029297
28107.617188 45340.757812 33238.488281
36381.769531 42168.039062 56753.160156
39552.476562 35385.757812 55792.113281
33968.132812 59316.917969 25425.119141
38060.628906 26189.361328 63196.945312
34012.132812 62569.871094 26136.306641
51682.402344 77702.562500 51988.441406
37057.921875 45793.855469 27486.052734
57910.269531 52473.695312 34384.136719
28308.937500 73809.828125 45008.085938
39703.632812 52104.476562 21822.107422
35100.406250 24972.089844 67232.179688
28893.898438 73835.359375 47244.039062
41673.800781 42551.710938 34439.632812
29244.414062 56795.644531 28718.925781
23942.427734 63113.613281 53427.179687
48205.988281 45497.867188 22977.005859
55929.246094 66568.046875 30342.521484
39776.781250 40147.300781 55662.207031
57137.062500 63617.042969 34956.140625
29444.171875 74253.625000 48085.988281
28460.730469 70899.351562 51225.707031
45798.117188 79733.781250 56563.296875
31138.021484 40012.046875 40873.046875
26010.568359 51669.824219 30794.214844
33500.324219 43187.414062 53257.777344
27151.388672 34062.496094 64809.710937
30853.917969 76496.960938 41239.000000
32557.746094 62265.218750 27641.759766
50932.675781 71448.742188 31116.681641
56445.503906 67084.031250 41487.250000
29520.486328 45004.183594 45375.996094
26044.210937 34234.007812 64237.460938
44428.339844 80526.679688 53629.523437
53961.234375 74329.718750 53494.195313
33500.726562 77480.156250 41569.359375
57315.777344 64354.988281 36018.503906
27571.791016 57767.070313 29723.376953
28048.210938 44531.582031 33593.812500
56349.867188 47597.214844 33230.425781
23437.312500 52606.363281 31408.310547
38876.906250 32960.816406 54156.972656
38324.257812 78816.031250 42207.148438
36273.164062 41069.363281 44950.339844
38011.726562 42979.722656 32286.886719
22278.873047 65650.437500 40908.738281
39601.683594 68028.890625 26140.384766
35736.617188 29485.441406 63554.031250
50197.761719 77625.210938 47945.000000
57804.066406 67647.796875 49924.101562
46997.558594 48057.937500 53801.550781
44572.531250 74130.195312 32552.253906
54219.894531 75465.515625 59091.515625
30248.605469 45058.179688 46245.562500
43081.988281 42769.503906 49270.085938
49098.125000 70148.234375 26309.320312
32247.957031 40845.023438 41988.496094
57847.386719 52876.835938 36170.246094
34801.667969 75996.609375 39349.746094
47667.621094 44520.199219 48319.121094
52831.273438 66636.789062 21267.373047
38317.343750 44080.472656 29388.039062
57234.000000 56094.625000 47151.109375
31248.656250 68120.390625 33525.105469
48476.562500 45798.835938 49562.289062
27865.189453 71640.953125 49025.058594
45955.238281 76589.625000 38936.582031
54641.433594 48768.664062 47017.503906
29730.816406 75371.500000 40353.542969
32433.857422 50740.519531 27578.091797
55343.523438 68249.359375 42299.769531
39714.132812 42490.585938 50613.781250
29743.148438 43569.164062 32949.117188
46757.269531 70018.437500 25784.255859
55687.457031 72502.390625 56894.363281
35217.328125 43982.898438 58137.257812
36349.082031 72099.968750 34380.664062
48935.726562 43511.339844 44460.285156
58347.257813 52649.062500 40529.136719
30266.480469 24173.886719 66112.750000
40524.019531 80989.382812 52300.363281
55888.125000 66242.921875 23086.654297
57246.726562 55767.347656 46735.460938
25053.525391 52312.945313 48138.523438
32278.322266 37431.121094 58308.859375
39635.832031 69099.875000 27137.638672
34590.757812 66751.914062 29779.044922
49784.339844 79483.929688 52010.121094
55825.027344 66667.640625 30881.095703
38387.644531 65509.785156 24512.117188
36356.480469 75977.757812 38798.949219
26349.187500 33210.074219 60087.167969
37640.917969 24478.593750 67044.570312
34149.257812 68814.007812 56690.253906
54879.503906 49730.480469 48025.894531
50658.218750 46829.152344 48266.496094
56739.398437 62916.535156 28987.417969
46029.285156 78119.726562 42589.011719
43101.324219 42871.980469 47412.460938
56208.031250 66211.859375 36016.585938
31657.441406 32462.451172 54603.820312
28922.080078 25054.921875 61362.445312
51501.109375 44814.484375 44995.472656
28831.056641 46776.808594 31938.931641
32387.201172 30433.964844 54568.347656
58173.488281 57842.492188 38947.593750
50029.292969 79342.492188 51651.167969
56952.054688 66349.125000 39948.183594
28681.056641 66197.703125 33606.328125
30788.558594 63372.796875 29856.857422
30815.955078 77187.609375 45572.218750
35202.695312 78532.671875 49209.421875
52102.191406 70727.976562 32861.113281
30827.312500 42050.609375 43047.089844
37861.019531 78586.789062 52916.882812
58954.156250 67451.703125 45016.656250
39690.976562 70165.234375 28177.951172
38593.566406 47677.574219 60363.980469
23847.183594 63938.277344 50071.441406
55134.207031 68626.476562 42555.230469
40017.343750 69733.273438 27456.386719
22235.390625 46783.582031 34570.519531
41969.757812 40764.769531 41647.722656
47754.082031 80520.375000 52520.820312
24677.591797 66690.570312 46453.550781
21570.798828 46523.125000 35459.445312
49242.574219 77070.367188 42509.968750
50730.707031 78676.382812 52054.203125
48448.367188 68798.726562 24669.021484
26412.033203 33482.335938 61072.117188
38797.824219 39873.449219 41283.445312
32366.630859 74191.867188 38350.378906
55144.519531 75016.750000 62132.703125
30714.261719 66479.218750 32474.861328
46961.996094 76110.445312 38262.121094
25160.332031 39762.652344 57028.761719
30668.640625 29407.060547 54646.015625
35524.269531 80284.359375 46287.937500
28719.361328 76024.601562 42375.000000
29046.972656 75130.273438 44986.585938
39144.269531 41309.179688 44939.957031
31172.197266 24138.726562 60706.949219
31424.281250 67800.250000 51932.613281
38377.699219 32840.234375 58183.644531
42389.210938 49901.746094 20272.294922
40084.589844 35291.730469 54651.125000
34351.050781 40336.437500 37135.382812
58326.472656 58579.910156 24133.000000
26657.574219 31312.884766 56640.187500
38188.468750 28587.923828 60130.144531
22630.185547 50965.886719 31919.640625
28624.515625 73862.859375 39315.800781
54614.527344 49410.972656 47882.144531
41323.890625 40419.195312 42056.011719
30262.835938 44421.300781 45465.097656
24669.460938 56549.488281 30608.082031
44102.847656 77540.312500 41099.019531
35392.156250 75792.148438 51971.921875
57318.457031 47961.367188 31130.689453
21802.265625 49050.003906 32950.902344
18120.009766 52342.054688 34306.703125
34237.027344 79258.796875 47367.796875
30074.310547 33987.519531 61924.609375
59261.128906 56822.101562 43650.796875
58537.660156 62560.289062 49774.843750
28688.960938 34643.371094 62185.640625
28825.615234 49743.785156 30379.427734
32587.248047 23428.964844 61732.828125
57085.402344 65278.203125 22719.031250
51531.156250 49534.773438 50696.554688
25243.902344 67365.343750 48246.968750
30882.449219 64104.886719 30252.507812
27393.152344 27274.236328 60209.921875
38867.109375 31717.884766 58057.218750
35355.953125 78165.859375 42010.695312
54721.636719 67114.265625 25892.294922
37005.675781 41569.265625 35761.906250
30669.974609 39076.796875 57926.117187
44940.445312 73417.773438 31028.945313
55850.160156 72108.632812 56892.496094
48434.261719 42169.535156 34878.062500
38030.839844 33000.007812 53751.519531
35469.554688 22950.617188 64699.992188
34953.527344 22139.623047 65223.570312
57885.207031 53791.523437 35006.933594
27030.697266 34374.140625 61785.613281
28899.972656 47071.683594 47015.019531
45604.703125 43332.425781 45821.171875
55049.402344 71380.296875 52263.308594
24378.828125 65557.226562 48635.703125
31778.259766 65325.644531 52165.863281
58113.335938 57913.296875 46600.644531
33008.421875 40413.355469 53226.417969
42706.308594 41509.550781 51764.300781
25338.154297 31544.074219 61829.261719
24117.939453 43106.125000 56916.875000
38801.011719 40673.351562 38593.031250
44078.167969 77813.179688 41467.734375
30166.066406 31664.740234 54567.289062
41897.273438 46745.656250 57381.281250
27030.093750 47025.378906 53832.351562
34766.277344 28390.810547 65018.230469
32225.740234 26253.222656 66682.250000
31035.517578 65594.156250 31454.285156
24465.173828 69460.250000 42979.675781
32002.929688 29055.416016 64582.027344
39300.000000 69703.820312 28032.070313
52566.566406 49689.972656 49874.332031
46364.441406 78426.210938 43270.812500
40295.730469 41688.894531 44978.445312
29590.771484 29927.777344 54708.617188
37851.687500 41374.652344 36429.117188
57645.605469 64418.703125 21174.273438
29867.224609 46546.230469 48078.503906
50627.875000 71753.648438 31146.794922
55931.328125 54401.109375 52242.699219
58053.406250 63604.015625 21322.576172
33957.246094 72591.570312 52933.800781
46939.140625 43119.824219 31541.955078
22620.085938 31122.109375 66320.078125
22982.792969 30516.578125 65461.414062
20425.160156 47562.156250 35885.726562
35596.183594 57908.183594 23548.525391
55942.312500 73290.734375 60034.917969
26156.798828 29372.494141 59865.886719
31375.390625 28606.505859 54808.695312
25633.039062 28968.781250 63122.226562
28739.115234 70187.804688 51712.105469
40754.667969 73803.648438 33385.671875
38791.789062 40185.605469 39938.421875
34271.027344 33137.843750 60218.011719
31329.523438 44686.007812 46954.460938
31420.013672 29005.425781 54687.531250
54733.003906 46706.953125 37291.515625
33099.808594 58546.828125 26316.714844
28163.048828 46568.480469 45510.324219
26469.242187 50340.656250 50189.785156
55507.566406 70778.367188 53962.300781
37610.750000 79733.007812 44024.363281
54202.347656 75445.351562 58033.140625
38937.457031 81269.843750 49471.859375
53245.957031 67475.343750 24874.261719
23635.062500 63568.949219 51422.066406
29919.419922 76970.781250 43282.218750
58450.058594 59440.191406 47244.332031
32203.541016 26910.203125 56237.664063
37486.152344 75734.398438 55062.804688
59332.558594 64910.480469 43193.433594
36151.925781 40797.035156 56649.886719
57497.003906 57542.898438 48565.230469
39938.203125 51114.117188 22035.113281
39009.914062 79957.757812 52671.460938
47578.039062 44334.453125 27012.093750
53987.710938 67365.250000 25533.296875
53883.769531 45198.378906 31812.923828
33371.292969 42362.597656 53436.726562
41053.425781 68913.632812 25651.634766
27308.656250 47674.746094 45825.937500
56787.417969 55211.960938 51639.148438
33496.847656 58627.035156 25965.763672
37829.929688 78763.296875 52481.472656
36527.085938 59574.886719 21496.380859
38130.328125 52573.359375 23107.861328
42949.269531 80628.171875 44757.277344
32543.445312 73179.171875 37494.683594
56852.179687 49578.539062 36225.875000
38646.617188 50925.707031 23163.138672
23934.224609 46828.546875 33367.351562
25920.660156 30626.662109 59701.500000
39142.144531 71921.742188 31445.082031
44300.980469 42235.062500 34982.312500
57366.820312 61731.925781 14500.261719
38520.609375 79788.562500 51757.671875
46616.699219 46718.597656 52774.984375
25287.089844 30410.064453 62129.394531
38083.722656 79798.953125 50923.800781
34147.398438 68030.492188 31684.914062
40079.613281 37912.300781 53049.742188
58584.914062 56563.898437 44877.152344
44591.535156 71086.414062 26550.833984
36747.433594 79556.726562 43953.414062
39994.484375 81298.843750 47043.851562
58470.242188 52722.164062 30644.740234
38983.648438 25869.115234 66033.632812
34201.144531 76554.437500 50150.949219
24619.998047 70639.929688 41739.828125
42595.847656 80446.429688 54931.339844
33973.156250 36473.402344 53991.796875
36451.363281 69609.062500 31656.796875
30351.812500 57855.773438 28187.654297
39945.683594 72746.265625 32201.345703
49291.578125 41946.566406 38496.242188
52552.191406 74815.257812 45718.937500
39493.179688 34377.601562 55861.250000
41813.832031 80920.273438 53341.085938
55904.750000 49001.750000 42135.457031
38046.742188 42554.160156 46779.015625
30979.248047 66433.695312 51870.046875
50079.941406 42217.375000 35713.906250
28316.175781 46802.148438 45853.945312
47382.171875 41777.871094 38321.183594
33866.304688 72930.507812 52668.539062
56037.421875 66811.484375 38992.761719
36471.929688 70688.117188 32885.097656
51458.292969 70555.437500 30336.750000
59429.902344 64810.785156 47101.214844
57219.476562 64054.140625 26164.890625
41931.179688 45865.160156 56497.527344
32627.244141 77214.039062 41519.796875
50330.574219 44596.292969 26650.542969
35156.855469 77332.812500 50274.273438
43411.238281 75082.640625 34261.394531
39021.964844 25463.363281 65311.691406
37714.406250 42865.781250 32557.076172
57143.644531 63141.683594 26841.648438
29792.960938 64329.519531 31302.435547
39346.320312 81529.718750 49055.152344
50140.867188 73736.937500 38845.375000
28288.347656 71936.875000 49648.339844
26696.587891 67287.179688 35846.781250
34877.777344 42879.980469 57751.554688
54936.125000 74457.390625 62743.277344
50108.343750 43757.050781 29472.548828
52438.457031 43577.507812 39435.722656
56987.929688 55253.593750 48678.382812
41960.882812 44128.687500 28541.820312
26722.791016 71789.609375 38753.785156
56747.640625 55623.402344 51792.210938
47907.320312 42418.769531 33514.484375
51451.625000 43204.160156 33155.640625
42498.968750 42309.804688 54252.960937
59676.597656 62416.078125 45596.882812
27868.628906 70359.656250 51200.101562
23231.310547 60630.000000 52708.273438
27412.958984 47273.210938 53525.933594
30981.347656 28806.224609 54777.125000
36922.003906 78851.273438 50662.527344
30984.808594 76410.476562 47080.882812
46213.742188 47929.769531 19316.734375
41103.281250 38917.433594 53374.046875
47440.511719 43150.179688 31405.724609
23000.718750 52432.140625 31588.623047
57871.761719 54548.058594 31748.326172
51762.089844 75437.101562 46450.554688
49370.140625 73487.187500 33570.285156
28753.125000 41348.039062 34909.289062
57318.761719 59227.304688 35824.437500
42129.218750 81378.226562 47165.464844
43548.976562 79821.859375 43511.992188
29228.480469 35528.171875 60480.933594
23602.820312 50700.460938 45316.121094
32416.666016 32706.468750 60968.289062
26798.009766 60984.828125 31148.269531
37295.738281 27595.177734 60124.171875
55140.484375 70944.421875 44558.078125
41078.144531 47748.621094 22917.093750
36593.664062 45731.890625 27803.552734
54047.132812 67581.726562 26354.197266
35061.281250 72296.460938 54431.417969
57114.789062 63585.238281 26875.798828
32089.441406 24569.652344 59903.636719
36637.265625 38036.679688 56609.726562
22945.232422 33317.371094 65359.621094
46945.761719 80936.968750 51600.292969
35393.285156 41241.363281 53190.183594
36129.050781 74516.773438 37425.664062
54116.273438 74273.179688 53886.878906
26584.068359 63252.402344 32898.480469
31321.539062 45543.082031 52284.421875
25468.296875 67785.039062 51425.011719
58476.566406 64512.371094 39761.425781
31694.611328 70622.484375 51985.238281
51837.878906 45665.671875 21985.759766
45642.000000 43221.296875 31453.687500
31752.873047 77085.296875 47102.761719
57841.046875 55490.457031 29816.304688
40677.714844 68905.007812 26015.810547
57839.171875 67217.945312 55441.300781
31318.988281 69226.421875 51932.835938
54604.308594 49066.265625 47463.085938
41380.375000 81197.242188 46491.277344
27011.568359 35776.589844 58594.718750
32774.972656 42720.140625 45516.542969
25608.277344 41005.523438 54451.183594
33017.617188 40883.941406 57500.964844
27584.378906 35553.414062 59282.199219
45850.859375 74492.414062 33354.726562
29157.296875 40526.660156 57709.644531
46064.925781 72717.914062 29617.490234
25780.849609 61207.570312 31763.841797
48658.582031 43780.453125 29124.509766
45338.359375 47963.863281 19775.222656
50571.722656 46023.988281 47444.097656
38577.960938 51349.160156 23101.916016
44324.792969 44563.820312 26893.113281
25302.554688 46543.648438 33160.394531
24548.404297 52967.832031 47549.925781
23747.310547 33982.886719 63656.078125
31082.166016 47857.378906 30006.277344
56566.984375 48042.421875 33853.734375
53782.480469 68652.601562 40493.273438
38444.003906 79056.906250 42565.882812
44262.675781 43855.562500 53055.078125
40273.644531 44690.066406 27662.201172
47518.621094 76171.976562 39084.027344
28196.925781 32782.000000 65643.710938
32980.609375 64765.035156 28955.562500
40221.476562 41197.015625 37678.179688
25964.732422 49621.488281 52744.703125
53765.332031 46047.886719 43978.378906
30680.974609 33231.414062 54606.593750
54335.175781 74981.304688 63035.476562
34719.574219 74331.445312 52474.679688
54223.910156 75556.570312 59501.066406
49642.492188 43163.125000 31587.882812
26065.472656 67465.328125 52180.406250
51893.894531 45669.324219 45671.218750
45753.558594 72596.093750 29354.927734
27221.837891 70149.367188 36834.480469
50527.277344 72965.468750 38186.546875
24882.417969 70860.367188 42318.148438
26162.033203 56458.875000 30028.171875
54157.886719 47601.722656 45924.378906
47586.921875 81156.609375 49727.679688
34088.882812 77794.601562 41820.734375
57651.222656 50756.304688 34628.000000
42030.644531 81288.906250 46760.167969
50550.601562 78277.351562 58952.703125
29456.044922 37740.105469 58416.144531
30138.791016 68528.437500 34372.675781
31118.472656 73915.359375 38288.894531
25881.283203 38262.652344 54080.773438
35119.656250 60482.507812 23662.099609
25552.326172 46208.023438 33462.886719
31877.000000 27048.019531 56041.996094
34835.148438 72336.421875 35874.773438
45385.609375 79545.218750 44493.324219
55766.507812 53437.031250 51960.214844
47269.515625 79305.070312 58028.000000
51584.050781 71638.781250 37105.042969
29580.757813 69326.296875 51940.589844
50881.015625 42903.855469 41562.468750
30551.992188 65347.562500 31582.085938
56791.250000 61481.335938 32884.644531
53513.171875 45136.960938 41427.164062
32557.638672 68580.718750 52350.027344
37731.496094 76095.671875 55536.550781
58331.773438 68244.687500 44963.164062
58788.980469 57499.324219 41126.472656
22974.136719 59252.972656 52293.550781
34842.453125 79136.265625 43753.277344
38234.589844 29487.531250 57420.003906
31702.541016 29839.880859 54571.765625
55820.300781 50112.410156 44829.292969
34523.960938 23725.160156 62774.171875
32235.156250 44560.925781 52992.742188
33370.683594 66667.234375 56660.222656
36959.941406 27308.927734 60142.433594
42431.031250 79150.546875 42032.265625
25596.310547 51523.277344 48445.539062
28078.273438 26130.826172 61307.894531
38740.214844 32405.751953 57953.253906
39245.316406 39992.074219 40883.679688
30931.365234 26569.988281 65742.226562
28826.035156 39822.105469 36005.898438
30189.167969 74255.804688 49312.609375
24103.347656 46190.054688 34011.945312
27164.845703 35191.363281 59253.421875
44078.480469 74650.101562 33557.667969
48756.960938 79087.546875 56051.632812
32197.416016 73758.085938 51762.296875
36941.515625 43368.074219 49350.277344
45800.441406 47922.035156 19547.187500
44616.851562 77015.617188 40117.968750
48612.003906 79283.671875 47340.125000
53302.246094 76727.695312 60046.515625
35081.152344 49979.527344 26103.751953
38341.628906 41741.601562 56131.632813
27608.841797 51124.687500 30390.228516
58495.011719 54672.109375 39460.285156
44765.875000 42153.515625 42405.476562
56425.050781 47304.007812 31953.929688
38053.175781 39873.378906 56125.785156
34003.015625 69216.578125 33093.234375
38926.945312 26855.957031 64037.753906
55849.476562 67394.328125 41293.632812
57076.050781 47874.816406 28848.351562
58669.542969 54076.210938 42224.636719
53800.878906 76445.523438 62510.425781
55370.738281 67042.648438 32375.027344
33886.546875 51232.734375 26351.548828
33972.921875 33578.824219 60015.824219
26561.689453 34623.457031 54895.761719
29072.466797 71018.765625 51519.015625
24493.828125 45886.906250 34161.816406
44602.906250 79313.585938 61112.457031
49587.835938 79038.046875 54366.152344
46238.480469 42816.402344 32504.472656
58593.179688 66147.468750 42773.085938
31860.626953 41831.320312 33206.421875
57819.277344 49514.601562 28166.591797
58651.289062 53748.113281 41423.261719
32334.732422 30523.537109 62357.460938
37583.476562 42836.687500 56371.769531
55657.562500 66687.976562 35262.953125
54288.675781 72892.500000 52789.593750
30920.970703 65570.031250 51883.570312
46245.726562 74164.156250 32545.802734
37226.304688 32394.468750 54263.128906
29445.128906 68918.781250 51943.851562
51619.511719 44360.242188 27660.533203
48554.765625 70744.109375 27025.039063
57407.242188 64618.125000 20622.230469
25446.013672 60792.789062 31632.730469
55471.886719 67191.312500 30735.542969
57022.414062 64043.718750 27143.146484
53958.613281 55244.160156 54793.191406
49101.113281 73788.226562 35616.269531
50174.425781 76651.265625 42619.277344
48502.660156 50087.015625 15905.825195
29156.175781 74252.609375 46986.964844
32976.527344 64445.894531 28630.134766
19967.171875 46307.824219 37778.820312
50767.343750 78083.453125 56966.511719
54411.191406 45401.488281 30121.601562
32686.423828 27986.851562 65370.613281
53693.226562 70505.593750 42831.910156
38492.550781 39925.445312 43269.144531
58429.148438 50455.683594 30577.982422
55993.117188 48967.765625 41707.554688
34670.796875 70312.445312 33871.804688
39661.503906 44434.835938 28238.570313
33736.718750 44423.968750 49263.957031
27178.498047 67093.296875 35364.808594
45550.460938 75255.960938 34812.593750
56723.429688 61406.937500 30305.537109
57628.070312 69161.359375 48394.269531
46728.300781 46378.687500 52377.429688
23239.431641 61149.332031 49612.867188
39057.636719 31211.126953 55951.585938
25768.609375 68747.375000 37517.578125
46944.351562 72223.351562 28809.244141
55568.843750 47863.878906 38538.507812
58567.039062 68292.140625 45581.753906
25926.566406 37209.082031 57160.941406
41953.628906 73510.531250 31580.855469
30710.898437 43619.929688 53875.058594
31764.947266 50721.363281 28111.808594
39164.343750 35395.007812 56203.296875
50960.042969 43748.531250 29813.443359
32639.218750 41889.644531 44130.988281
37424.902344 31502.728516 54534.714844
41836.796875 78873.984375 41511.414062
33104.925781 75865.625000 39638.171875
37940.468750 80625.945312 45508.191406
53018.828125 69406.093750 30652.974609
43223.074219 75259.851562 34595.488281
48950.429688 44959.902344 25237.041016
31327.908203 28162.851562 55020.503906
48625.703125 43892.421875 28689.335938
24362.757812 30309.609375 63325.964844
29357.425781 45011.003906 53936.378906
28959.285156 25798.250000 65256.535156
57488.082031 63225.925781 25196.759766
40331.886719 70943.648438 28631.554688
30228.421875 35086.890625 60806.906250
29119.523438 41006.058594 57678.433594
40377.035156 80913.359375 45809.007812
38586.882812 30738.691406 59067.761719
24626.406250 51475.121094 31234.992188
48028.429688 46151.617188 50548.175781
35232.734375 31093.652344 54559.968750
31192.570312 41536.867188 57493.468750
31605.363281 23302.441406 61842.800781
33271.199219 48468.574219 28051.802734
38106.867188 40686.128906 52751.355469
33197.886719 77977.164062 47728.199219
56413.871094 70273.304688 45257.390625
37182.972656 28185.599609 58449.093750
44010.734375 42372.222656 51961.992188
38729.703125 46831.035156 58890.238281
31060.345703 67316.960938 32956.867188
35377.566406 77437.875000 40781.578125
35818.308594 44891.550781 29048.646484
26768.730469 34779.859375 59200.886719
45233.792969 80145.421875 45281.617188
56278.121094 65753.328125 30562.804688
35534.214844 54006.031250 24757.607422
29075.433594 72528.015625 37604.503906
56343.878906 47473.957031 32862.789062
50477.582031 72712.523438 33342.472656
28060.523438 31759.361328 54839.875000
58611.457031 54080.078125 42630.851562
58097.910156 61089.085938 38269.253906
38048.976562 25716.542969 63751.503906
35141.050781 40301.296875 37629.832031
37504.515625 32043.167969 59650.062500
35350.125000 62847.570312 24857.474609
41815.453125 78016.750000 40738.890625
25561.441406 53380.203125 30494.695312
56980.925781 71242.343750 60012.593750
29685.130859 71058.476562 36313.089844
48029.050781 73467.773438 31538.226562
27581.843750 73124.226562 44332.632812
35756.554688 78798.992188 49450.667969
45981.386719 48084.070312 55140.855469
56356.800781 72379.640625 59196.285156
53041.003906 44286.351562 31452.150391
29691.542969 48741.828125 30451.382812
29988.431641 39440.707031 57855.453125
31218.833984 71838.906250 51939.542969
31309.246094 76537.570312 41080.195312
26006.572266 72390.718750 42631.246094
58089.972656 62788.187500 22252.203125
53055.933594 47839.351562 47272.031250
31021.648438 45964.890625 51236.050781
44775.957031 49108.820312 18989.363281
55379.230469 71311.101562 45398.390625
56990.910156 64558.363281 35055.222656
32090.562500 40824.410156 34853.183594
50181.679688 45981.929688 47850.957031
32296.175781 27639.152344 65590.429688
47892.996094 43223.042969 31157.492187
27391.835938 71219.195312 47728.148438
28743.482422 37413.988281 53366.496094
56174.792969 51260.574219 47159.667969
50425.218750 42267.882812 36115.574219
35356.003906 43631.976562 30854.449219
22787.285156 32746.669922 63931.046875
43513.765625 44094.019531 28214.207031
52463.847656 70099.445312 39373.859375
40809.320312 43281.687500 31519.574219
30737.396484 73576.062500 38053.046875
44739.089844 44645.050781 26606.552734
24889.013672 37580.609375 55232.156250
27316.558594 49299.984375 48202.414062
26117.746094 33031.062500 61186.976562
36872.953125 42825.859375 51918.175781
32808.339844 67416.835938 52661.679688
33995.945312 78236.203125 42538.625000
25623.742188 68449.367188 46259.339844
33741.074219 67965.460938 56626.984375
51436.632812 42742.367188 38666.121094
25790.011719 30430.968750 60821.539063
56613.324219 67146.601562 41905.757812
59586.726562 58809.394531 43080.097656
34955.761719 65458.066406 27886.009766
56884.042969 63393.175781 28014.554687
54180.199219 45962.359375 37951.484375
48849.988281 50754.210938 15267.263672
36566.468750 75642.312500 38384.742188
43243.613281 50853.074219 19087.373047
33036.804688 42843.910156 31761.453125
51866.253906 69984.632812 29726.849609
57556.007812 69470.671875 58908.425781
23771.156250 42682.816406 56829.753906
42875.480469 73070.515625 30094.744141
35201.402344 42568.984375 46365.707031
31137.433594 22086.541016 65782.664062
33744.242188 71545.015625 35631.324219
59549.894531 61147.648438 15421.541016
43362.929688 43893.921875 28813.359375
26508.207031 67762.984375 36235.328125
55471.496094 47579.695312 36819.988281
53154.457031 44465.421875 38422.128906
42492.761719 41147.742188 38728.589844
24872.968750 39608.160156 54652.382812
38171.625000 35134.968750 52959.183594
25270.228516 67653.367188 46878.644531
38900.968750 51252.941406 22870.468750
42553.175781 40900.820312 53091.460938
34520.292969 38666.390625 57338.800781
57164.402344 50616.039062 37166.507812
51806.382812 43019.554688 37305.976562
36903.117188 48907.789062 25359.140625
43113.667969 42807.199219 33577.593750
42977.441406 41109.316406 40003.773438
31358.261719 22399.515625 63652.945312
52996.253906 44243.511719 39809.679688
38171.218750 29186.355469 58327.644531
41249.601562 39402.320312 53086.285156
53802.695312 45547.011719 35118.332031
47536.179688 45332.628906 23775.726562
30003.009766 44545.156250 32223.003906
33258.671875 21989.527344 64311.468750
37802.792969 38665.964844 56210.304688
53460.636719 45118.640625 34879.582031
54876.023438 67856.843750 30157.427734
24231.339844 52145.289062 52974.902344
29498.796875 30958.568359 54603.300781
34676.269531 71936.445312 54263.433594
27342.779297 68114.062500 35724.343750
56044.738281 56539.527344 52710.859375
47896.699219 42190.195312 41009.785156
29598.175781 69315.687500 35166.597656
32679.724609 47847.480469 28840.705078
40083.210938 41047.089844 44325.699219
38358.671875 30715.476562 59677.441406
43014.871094 44341.382812 54634.277344
59360.179688 66981.617188 45773.816406
41785.468750 50695.925781 20417.386719
55509.781250 46814.355469 32723.417969
30831.687500 61985.550781 29233.964844
25612.445312 35099.476562 56140.507813
47244.714844 71321.398438 27587.066406
51223.292969 45531.867188 22703.839844
45502.320312 46609.527344 21615.185547
57885.292969 53213.117187 36442.035156
34439.835938 74574.187500 52153.773438
43687.437500 79890.898438 56708.128906
24521.248047 41586.550781 56985.203125
32390.810547 74226.156250 51580.703125
23742.406250 63868.054688 51034.011719
39166.320312 47065.859375 59121.917969
39359.218750 34464.554688 53374.292969
26131.191406 29290.515625 60264.582031
39894.941406 41038.093750 38038.304688
40438.730469 37550.902344 53408.378906
33773.285156 75075.617188 51539.375000
52015.679688 77406.507812 58424.562500
25785.835938 34149.992188 56303.289063
25863.941406 30959.500000 60152.507813
33335.332031 42538.152344 32037.630859
54979.304687 74410.765625 58197.628906
58341.300781 62476.308594 50153.660156
42476.941406 47955.503906 21963.982422
24601.437500 41310.886719 35992.363281
36974.175781 43345.937500 48928.781250
55630.519531 47949.785156 38999.710938
27103.160156 73848.531250 40855.476562
33021.656250 28365.044922 54838.851562
43345.324219 76062.101562 36633.878906
37660.656250 31262.869141 60277.667969
36309.796875 62578.160156 23508.710938
31406.154297 51075.121094 28176.822266
31644.601562 25329.548828 58653.894531
25919.150391 31616.289062 59469.519531
48149.472656 45087.621094 48896.984375
54144.222656 68312.796875 32164.228516
49173.843750 47826.980469 18061.253906
56511.699219 60353.515625 13446.271484
38142.941406 46730.070312 25817.099609
24052.720703 33868.347656 64867.824219
57740.835938 54936.816406 31743.097656
26815.857422 70437.070312 46481.742188
48117.375000 43375.300781 44312.812500
48330.980469 79969.937500 53401.835938
56246.351562 71266.468750 56940.148438
34628.242188 79558.875000 47388.265625
38682.128906 30216.392578 56902.042969
57046.894531 62471.257813 27403.970703
56248.238281 73014.406250 61362.761719
24452.152344 68709.632812 43497.882812
27504.490234 69944.937500 51249.289062
32247.074219 62335.339844 28000.718750
26239.791016 62855.816406 52910.078125
51731.699219 74269.820312 41593.070312
38562.890625 42621.250000 33544.730469
36260.132812 56189.566406 23512.871094
58416.644531 53458.250000 29565.000000
37021.734375 42144.828125 34469.292969
38355.613281 28893.867188 62507.191406
48778.605469 78938.976562 56921.628906
44871.894531 48179.546875 19843.169922
28954.714844 72452.109375 50149.968750
57191.085938 58714.355469 34257.285156
37762.656250 43547.730469 30729.271484
40191.488281 44900.722656 27301.562500
30870.560547 41087.949219 34558.519531
23601.343750 49851.187500 31691.958984
35410.128906 78997.593750 43411.859375
52532.718750 45182.984375 44351.000000
44913.054688 47904.242188 20134.074219
43454.558594 45835.691406 24710.146484
51178.230469 77827.492188 56723.539062
59135.097656 56924.597656 44104.507812
57396.246094 67635.000000 51127.992188
39666.312500 71478.164062 30007.833984
28136.886719 47927.566406 47027.546875
34068.312500 40386.125000 57326.335938
46181.085938 79505.328125 57707.035156
30611.246094 72409.250000 37116.867188
25855.531250 33455.390625 56759.371094
36116.453125 77097.218750 51604.105469
32556.787109 69718.343750 34309.480469
24270.041016 41805.828125 35984.171875
36035.636719 23827.107422 64281.937500
36779.335938 43279.046875 31362.802734
49290.554688 73821.117188 36452.070312
28494.496094 66511.750000 33976.007812
52385.648438 69974.445312 30945.365234
34434.128906 65900.156250 28893.900391
52692.750000 47878.324219 47574.699219
38347.101562 41742.769531 35814.406250
37165.871094 80123.726562 49291.343750
55174.996094 75156.046875 61681.800781
27482.199219 72662.859375 44631.218750
56976.566406 55255.414062 48252.121094
26793.628906 31435.794922 56223.878906
35795.871094 76023.476562 39057.234375
33195.898438 27663.332031 55306.160156
27462.201172 71544.804688 46849.574219
59381.843750 63892.488281 42875.730469
55640.449219 66636.203125 34487.703125
31767.728516 75984.296875 48600.210938
56251.394531 69011.695312 43719.984375
39262.152344 42771.941406 49680.585938
55803.332031 70112.914062 53571.457031
31352.869141 77854.007812 45264.046875
54818.484375 67591.515625 36120.585938
33850.703125 42805.554688 46199.054688
48559.886719 79075.046875 56526.718750
56733.792969 62507.191406 29151.171875
40598.394531 40934.058594 38597.210938
44688.019531 41470.097656 37905.953125
44734.542969 43164.496094 46105.238281
47279.300781 43604.667969 29783.525391
25808.107422 32082.816406 61198.332031
41589.121094 42648.167969 48183.027344
30343.869141 76475.585938 45880.652344
42716.988281 42809.210938 33622.257812
37906.984375 32227.390625 54342.085938
45681.496094 43475.351562 30390.904297
48993.917969 73648.679688 33188.773438
57684.878906 56839.855469 35831.070312
37769.265625 80451.453125 49569.507812
26616.767578 28980.937500 58784.945312
53200.773438 76404.875000 56886.175781
57553.121094 66321.210938 51504.054688
32428.990234 76787.437500 48260.617188
23132.488281 32979.335938 63444.953125
37879.761719 43933.738281 29841.025391
24421.521484 63726.851562 53473.730469
32359.349609 29673.566406 63716.296875
50895.546875 72514.960938 34397.296875
33542.324219 68589.664062 32665.052734
54019.746094 49203.136719 48149.250000
42324.066406 44930.570312 55597.128906
38184.644531 29292.376953 62276.996094
25364.380859 71682.539062 40947.519531
31908.808594 41567.835938 53488.949219
30436.103516 72759.195312 51544.878906
37387.910156 44131.593750 29563.488281
21951.269531 53215.523438 31828.246094
48803.996094 79579.937500 53929.703125
43007.222656 47902.312500 21622.046875
37197.152344 40215.871094 39084.789062
49035.140625 79375.234375 48050.855469
37962.718750 36563.003906 53008.468750
58386.953125 54507.386719 23878.462891
30286.222656 23397.970703 62343.480469
39196.214844 44770.191406 27755.724609
31336.376953 72001.468750 36699.804688
58540.175781 62303.300781 38986.000000
50463.320312 44468.390625 27042.472656
56970.097656 70123.109375 45905.816406
41702.710938 78482.367188 41104.078125
25919.757812 31233.296875 59276.332031
51547.785156 42976.437500 35346.578125
58761.566406 67039.039062 44169.125000
37753.468750 26199.675781 62769.386719
34642.535156 47784.730469 27373.423828
40340.445312 42879.484375 33124.605469
58565.046875 65851.828125 42233.980469
59083.570312 60848.210938 46598.105469
31023.724609 48652.347656 29731.474609
33581.726562 42352.468750 45535.980469
54342.796875 47446.992188 45412.296875
36288.117188 80593.757812 46919.941406
38062.652344 42349.253906 34220.707031
28671.425781 36591.855469 58959.847656
27377.867188 27034.281250 61985.320313
49019.988281 42589.371094 42141.820312
39683.750000 68760.437500 26770.544922
32904.316406 26366.501953 57291.753906
43472.070312 75512.195312 35053.066406
55825.812500 70953.773438 49836.511719
40251.285156 45737.785156 25883.578125
36906.710938 67787.539062 28595.992188
42720.324219 41144.343750 41794.253906
52826.136719 44094.964844 40271.492188
45671.566406 44586.871094 26503.980469
42250.250000 42512.429688 49985.503906
35918.937500 57607.285156 23207.775391
42301.507812 44251.039062 28146.826172
34868.660156 66177.015625 28783.800781
35487.074219 67722.781250 30125.406250
30879.458984 62498.269531 29376.517578
51226.292969 72247.125000 34662.660156
36312.769531 49702.632812 25512.257812
28779.257812 53453.832031 29010.906250
35370.671875 28427.242188 55116.082031
50549.753906 42335.753906 39070.765625
23746.048828 46559.906250 33781.457031
44614.804688 80608.468750 53095.667969
31498.281250 46751.167969 30165.439453
28535.908203 71799.882812 37236.011719
26119.773438 34128.238281 64741.394531
34352.324219 63432.054688 26438.544922
31012.044922 77799.648438 44379.281250
36101.500000 66662.085938 27994.564453
34031.574219 22555.712891 63913.859375
29400.888672 64265.773438 31547.636719
25859.232422 47617.152344 32096.820312
56650.246094 68750.414062 54118.156250
31151.515625 42155.191406 43355.539062
42977.531250 74435.710938 33155.500000
46687.824219 41772.394531 36727.386719
53859.964844 73399.914062 48296.082031
59172.042969 64052.582031 47902.097656
51068.160156 76042.429688 45550.968750
26911.246094 70756.492188 46081.554688
42458.835938 73119.718750 30400.980469
35697.972656 76216.015625 51919.097656
42260.515625 40584.792969 52872.210937
30990.521484 27573.457031 55562.828125
32039.285156 21951.025391 64443.171875
58438.617187 52572.109375 31146.968750
34622.578125 73011.445312 36712.125000
37504.230469 25896.322266 62906.644531
25460.244141 34233.113281 62752.859375
30432.949219 77217.125000 44683.328125
55312.121094 47468.199219 40936.863281
47200.757812 81260.304688 49817.023438
26628.917969 62394.007812 32157.626953
30455.330078 70585.898438 51924.792969
45232.898438 81199.382812 47875.285156
26373.046875 32951.082031 55825.574219
35662.144531 31405.003906 61337.105469
36938.582031 44346.605469 29353.548828
54369.308594 45652.742188 31545.619141
56581.230469 66087.257812 37666.472656
31246.060547 68244.437500 51922.519531
57782.433594 51587.210938 34707.937500
32063.572266 78367.968750 45502.746094
28524.251953 39918.402344 53247.332031
32471.705078 55990.847656 26352.074219
34255.625000 66511.585938 29805.238281
47282.273438 80329.312500 53338.222656
49094.292969 79238.554688 54675.312500
58823.878906 54806.718750 41840.691406
33785.121094 77975.390625 42220.695312
55263.398437 46580.632812 32451.052734
46703.203125 47752.601562 19287.382812
52348.707031 65676.570312 19390.410156
58293.992188 50355.824219 28814.601562
25918.234375 53573.769531 30324.753906
30902.767578 25407.822266 66204.562500
38902.218750 43116.347656 32024.490234
35188.304688 52163.273438 25392.472656
26431.941406 35995.273438 57920.421875
35678.855469 22191.972656 66597.546875
53123.289062 74114.640625 47923.648438
27352.183594 73675.304688 40336.593750
37047.246094 79769.835938 49589.921875
59796.191406 63865.632812 45393.234375
55306.261719 71886.609375 48486.511719
56856.363281 50193.523438 38171.839844
58820.417969 56093.855469 44091.738281
58145.312500 53728.160156 31496.496094
39827.515625 79698.375000 42990.261719
58708.621094 56315.132812 44481.171875
31782.740234 64768.195312 30033.537109
57745.156250 51771.960938 38886.832031
40362.273438 42430.457031 34577.914062
38894.957031 73880.898438 34695.222656
26612.818359 72879.210938 40265.714844
56072.546875 50773.386719 44508.710938
47022.433594 71021.546875 27181.648438
41916.718750 46717.148438 23749.039062
44206.644531 43101.382812 46954.847656
35480.945312 77972.609375 41616.343750
46440.765625 71383.984375 27522.925781
28688.673828 41836.691406 57734.011719
44690.500000 72438.843750 28843.630859
28819.941406 56483.480469 28924.125000
59421.214844 62238.222656 46615.851562
48443.800781 42668.210938 32823.187500
52315.550781 69071.406250 27802.859375
35920.816406 79700.632812 48563.722656
32587.335938 78201.445312 46650.628906
52740.988281 76821.195312 57507.140625
33140.132812 33097.492188 60580.136719
57718.710938 56050.554688 35491.136719
42221.554688 53886.199219 17508.150391
41490.816406 69143.773438 25474.001953
22539.982422 31951.513672 64298.863281
54738.167969 72020.429688 50990.765625
40638.078125 40679.968750 43657.414062
29217.669922 23289.568359 64056.082031
33238.171875 78770.187500 46693.703125
27494.341797 71713.984375 46455.375000
26264.347656 62428.277344 52908.800781
29050.435547 36156.410156 53921.187500
48115.507812 47245.148438 19339.611328
41497.695312 77201.039062 39830.898438
55099.238281 67360.695312 36547.988281
41557.558594 44474.558594 27860.130859
25684.236328 72050.820312 40750.250000
41690.570312 50209.687500 20747.337891
57148.421875 58886.394531 33823.574219
26690.318359 29088.449219 63989.406250
32053.789062 31184.744141 61728.109375
42138.863281 41985.136719 54515.195312
57095.882812 66385.359375 40443.675781
35387.859375 74767.265625 38045.816406
45749.632812 41637.957031 37114.871094
28149.208984 28624.751953 56692.207031
33618.953125 78894.312500 47054.140625
35376.109375 42887.187500 46761.609375
43479.089844 76299.398438 37563.601562
34907.996094 40789.117188 43891.277344
42441.093750 50293.167969 20028.001953
52483.058594 77396.429688 62733.484375
56740.523438 65610.765625 36269.343750
37640.179688 79461.976562 50772.996094
52293.394531 44743.671875 26561.466797
50693.777344 53069.390625 12264.875000
27350.968750 73102.554688 39606.296875
34235.433594 51031.843750 26211.269531
30876.224609 22196.261719 65340.281250
28416.064453 30971.541016 54862.519531
57998.070312 54120.101562 31975.910156
27892.748047 41141.421875 35156.777344
43681.753906 81369.617188 48415.695312
39107.437500 41833.406250 35836.183594
41601.796875 40578.769531 41022.250000
37316.019531 79241.242188 43318.703125
30329.802734 51889.152344 28505.949219
32243.304688 77832.726562 42603.988281
23013.902344 45611.433594 35171.789062
53996.855469 75683.375000 57747.363281
37287.187500 40975.164062 37170.656250
28038.470703 37996.535156 58039.246094
50196.269531 78607.476562 54782.417969
55649.656250 47959.722656 39525.781250
49808.269531 43183.015625 43372.078125
46359.410156 76675.632812 39488.296875
24295.482422 40514.468750 56850.007812
56885.527344 61120.703125 33305.613281
26786.261719 31924.041016 66756.632812
35571.253906 40429.574219 43556.675781
37878.164062 80777.507812 45952.097656
37488.574219 54108.320312 23163.951172
38718.132812 24988.865234 65140.296875
34522.121094 59063.347656 24677.150391
29446.371094 31118.236328 63041.105469
39232.140625 66771.343750 25123.285156
32433.437500 72332.609375 36795.476562
52183.257813 70683.367188 40296.054688
24327.033203 38823.945312 55467.792969
44018.332031 81311.281250 48183.046875
24707.083984 66766.484375 51729.660156
56856.156250 50311.312500 41108.554688
35426.691406 23956.259766 63484.531250
32515.337891 78748.875000 45270.523438
32377.804687 21715.265625 64792.050781
47717.523438 80975.296875 48929.132812
38314.207031 76482.617188 38780.042969
47806.753906 74505.328125 35032.605469
29159.517578 71492.882812 51338.378906
55550.777344 49703.964844 46527.105469
33216.253906 77687.421875 48091.695312
34860.332031 35831.300781 54217.660156
48506.230469 80111.976562 48245.277344
42242.269531 40484.054688 53284.156250
38059.523438 42178.988281 34709.554688
35895.621094 77800.617188 41178.175781
23177.125000 60537.867188 51671.945312
25381.777344 70654.554688 39570.429688
32726.970703 77509.164062 47713.652344
57273.109375 56808.152344 48643.839844
28431.736328 71318.304688 36903.570312
37056.617188 78513.195312 42178.078125
33152.300781 44624.136719 51593.417969
30727.201172 48078.011719 30152.664063
56608.183594 65957.789062 37134.476562
57935.296875 60750.375000 38012.996094
32347.048828 29957.548828 63206.179688
28236.812500 72844.656250 47201.015625
44453.468750 80590.117188 45476.511719
51452.816406 44241.386719 28050.455078
27790.742188 26831.519531 62442.023437
37176.980469 31957.166016 59986.316406
45288.687500 79745.929688 56726.285156
54636.164062 46247.589844 33394.433594
30946.691406 69132.687500 34495.691406
56304.949219 47050.632812 31077.371094
33346.390625 64884.035156 28750.371094
51437.292969 69859.109375 28139.640625
31490.958984 38938.843750 37877.148438
29732.244141 57539.714844 28561.750000
57851.050781 52157.117188 34707.785156
26024.089844 29774.457031 59992.171875
28235.230469 47219.492188 46210.804688
31661.630859 23070.267578 62213.101562
32513.330078 65520.242188 30182.765625
27255.250000 64928.890625 33820.449219
45993.902344 73921.921875 32056.130859
43428.945312 44671.218750 26938.279297
37480.726562 78991.945312 42871.695312
29447.378906 46405.636719 46924.804688
37200.984375 24729.089844 64169.726562
32167.056641 53177.101562 26867.931641
36014.535156 52545.191406 24730.128906
35321.761719 49236.917969 26273.287109
36674.433594 54177.226563 23862.392578
30277.541016 46497.851562 51098.734375
28137.980469 46492.492188 32493.080078
55329.300781 66928.554688 34224.027344
57144.917969 68223.015625 43741.792969
57083.937500 58430.687500 30874.919922
38649.144531 41956.113281 35430.664062
45186.214844 43249.636719 45941.636719
54896.730469 49090.996094 47117.074219
37137.285156 66945.859375 27226.015625
32681.861328 23207.322266 62088.792969
41463.707031 39321.207031 53514.367188
37404.957031 43250.523438 49201.261719
41841.679688 47020.554688 23370.187500
24987.816406 33154.394531 67166.273438
30591.935547 28995.753906 54760.843750
32255.685547 48234.375000 29008.050781
35363.488281 22016.234375 66169.640625
45289.136719 49575.730469 18058.009766
56651.691406 69082.601562 44105.589844
46027.792969 73302.156250 30773.109375
48387.625000 45378.917969 23400.822266
56710.941406 62736.769531 32493.433594
51581.546875 71667.257812 33535.371094
26029.876953 69614.703125 45296.292969
41385.183594 81123.835938 52604.785156
35046.976562 42092.632812 57437.566406
32650.437500 43186.519531 31574.464844
54748.589844 46721.128906 41818.660156
35385.593750 44538.000000 29660.714844
31550.005859 39193.109375 53164.687500
44631.523438 42559.105469 43641.109375
35270.328125 79363.335938 43997.843750
31458.730469 36925.621094 58804.304687
25843.785156 32323.623047 67227.468750
29737.976562 34337.523438 61909.472656
40931.046875 39579.378906 52762.667969
32909.558594 62434.773437 27322.562500
37094.054688 79803.843750 44272.250000
53832.847656 45300.269531 32686.275391
45459.984375 71638.992188 27670.822266
56030.878906 48662.472656 40433.703125
