1572
-33.596001 22.709000 57.462002
-34.337002 22.122999 56.846001
-32.952000 22.226000 57.534000
-33.358002 23.459000 57.766998
-34.424000 23.221001 57.237999
-32.486000 23.277000 58.033001
-35.132999 22.589001 56.659000
-35.366001 21.886000 56.188000
-35.046001 21.341000 56.102001
-33.849998 21.517000 56.792999
-20.649000 47.507999 34.966999
-20.639000 47.441002 35.695999
-20.009001 47.844002 34.964001
-20.254999 47.766998 34.266998
-21.000999 47.457001 34.431000
-21.349001 47.228001 35.168999
9.615000 36.111000 40.647999
10.646000 36.102001 40.473999
10.147000 36.957001 39.999001
8.688000 35.898998 41.214001
9.219000 35.245998 41.387001
10.064000 35.542000 40.970001
9.403000 37.138000 40.257000
8.970000 36.493999 40.808998
-11.921000 48.595001 33.185001
-12.397000 48.388000 33.721001
-11.653000 48.324001 33.928001
-11.482000 48.762001 32.658001
-11.062000 48.570000 33.242001
-12.576000 48.757999 31.812000
-11.913000 48.708000 32.161999
-38.693001 43.875999 27.346001
-38.558998 44.214001 28.202000
-38.036999 43.987000 27.836000
-38.195999 43.709999 26.926001
-38.886002 43.500000 26.542999
-39.305000 43.708000 26.895000
-39.091000 44.085999 27.792000
-38.563999 44.441002 28.983999
-37.987000 44.250999 28.608000
-39.172001 44.487000 28.777000
-37.389999 44.153999 28.374001
-37.113998 44.028999 27.849001
-37.616001 43.785000 27.268999
-15.237000 43.130001 49.023998
-15.703000 42.667999 49.480999
-14.793000 42.925999 49.723000
-14.674000 43.791000 48.582001
-15.326000 43.655998 48.410999
-15.699000 43.153000 48.803001
-14.769000 43.250000 49.248001
-16.323999 42.705002 49.342999
-16.337999 42.321999 50.166000
-15.632000 42.283001 50.314999
-15.157000 42.480999 49.902000
-14.283000 42.926998 50.432999
-14.183000 43.381001 49.821999
-14.770000 42.541000 50.472000
-28.641001 12.152000 48.980999
-27.549999 11.511000 49.147999
-27.997999 12.363000 49.737000
-29.000999 12.751000 49.536999
-29.836000 12.561000 48.566002
-29.327999 11.822000 47.889000
-28.351999 11.438000 48.298000
-27.292999 10.820000 48.335999
-26.541000 11.105000 49.410999
-27.194000 12.046000 50.007999
-27.656000 12.931000 50.618999
-28.455999 13.038000 50.282001
-48.127998 21.076000 33.235001
-48.303001 20.936001 33.978001
-48.602001 21.712999 33.131001
-48.183998 21.665001 32.306000
-47.667000 21.030001 32.402000
-47.584999 20.141001 34.122002
-47.362000 20.427000 33.022999
-48.918999 21.356001 34.542999
-49.087002 22.045000 33.683998
-48.201000 20.429001 34.799000
-44.752998 32.583000 51.763000
-45.404999 32.651001 51.012001
-19.760000 15.302000 12.948000
-20.184000 15.835000 12.223000
-19.348000 15.401000 12.274000
-18.995001 14.831000 13.350000
-19.791000 14.944000 13.856000
-20.489000 15.552000 13.083000
-20.943001 16.152000 12.291000
-19.461000 15.858000 11.494000
-20.316000 16.306999 11.556000
-18.680000 15.336000 11.697000
-18.653000 14.981000 12.581000
-26.431999 32.710999 7.144000
-26.808001 33.527000 7.255000
-26.240000 33.868000 6.972000
-25.662001 33.271999 6.757000
-25.646000 32.472000 6.825000
-27.302999 32.680000 7.486000
-26.052000 31.627001 7.101000
-26.629999 31.448000 7.415000
-27.122000 31.858000 7.526000
-26.589001 34.500999 7.156000
-27.504000 33.490002 7.463000
-27.157000 34.242001 7.330000
15.158000 19.774000 39.883999
15.101000 20.003000 40.888000
14.759000 19.438999 40.612000
14.744000 19.146000 39.792999
15.446000 20.285999 40.061001
15.235000 19.455999 39.105000
15.651000 20.062000 39.018002
15.991000 20.563000 38.980000
15.875000 20.844999 39.782001
15.587000 20.731001 40.681999
-21.691999 39.231998 6.627000
-20.997999 39.030998 6.197000
-22.073999 38.491001 6.302000
-20.927000 39.720001 6.625000
-22.686001 38.724998 6.643000
-21.966000 39.723000 7.094000
-21.502001 38.321999 5.985000
-22.337999 37.699001 6.082000
-22.993000 37.748001 6.292000
-20.222000 38.944000 5.853000
-20.802999 38.256001 5.723000
-19.990000 39.813999 6.234000
2.036000 20.257000 50.807999
2.185000 19.707001 50.895000
2.791000 20.200001 50.923000
2.411000 20.966999 50.717999
1.612000 21.393999 50.675999
1.148000 20.820999 50.700001
1.251000 20.076000 50.716999
1.519000 19.410000 50.743000
3.346000 20.777000 50.942001
17.458000 28.605000 43.938000
18.016001 29.259001 43.355999
17.773001 29.700001 43.730999
17.250000 29.513000 44.411999
16.988001 28.547001 44.625999
17.936001 28.311001 43.298000
16.950001 27.599001 44.341000
17.344999 27.594999 43.797001
16.764999 29.292000 45.063000
16.577999 27.715000 44.928001
10.095000 40.250000 38.386002
10.293000 39.078999 38.803001
10.571000 39.678001 38.272999
9.798000 40.980999 38.644001
9.795000 39.973000 38.938000
10.784000 40.374001 37.832001
10.186000 41.034000 37.930000
-38.970001 16.002001 26.691000
-38.986000 16.384001 26.100000
-38.436001 15.973000 26.516001
-39.167999 15.836000 27.240000
-39.688999 16.139999 27.219000
-39.610001 16.437000 26.552000
-38.528000 15.703000 27.181000
-38.457001 16.236000 25.875999
-39.680000 16.808001 25.962999
-39.173000 16.820000 25.483000
-38.529999 16.573000 25.242001
-37.916000 16.146000 26.091000
-37.938000 15.749000 26.927000
-44.397999 18.687000 30.621000
-44.151001 18.325001 31.028000
-44.755001 18.549000 31.780001
-44.780998 19.167000 30.278000
-43.827000 18.517000 29.830000
-45.242001 19.187000 31.259001
-43.382999 17.983999 30.136000
-43.312000 17.688999 30.773001
-43.860001 17.900000 31.503000
-44.612000 18.112000 32.558998
-45.276001 18.695000 32.530998
-45.758999 19.295000 32.159000
-30.558001 44.187000 19.296000
-30.174000 44.536999 19.931000
-30.055000 44.210999 18.983000
-30.655001 43.799999 18.513000
-31.257999 44.314999 19.973000
-31.205000 43.978001 19.132000
-29.645000 44.972000 20.659000
-29.419001 44.626999 19.634001
-30.503000 44.747002 20.617001
6.750000 12.350000 42.793999
7.458000 12.523000 42.316002
6.881000 12.077000 42.158001
6.174000 11.878000 42.756001
-42.046001 33.369999 52.919998
-42.230999 32.605999 53.431000
-41.328999 32.797001 53.671001
-41.383999 34.228001 52.387001
-42.264000 34.162998 52.078999
-41.063000 33.617001 53.062000
-43.035000 32.846001 52.895000
-17.188000 41.575001 51.523998
-16.683001 41.883999 50.879002
-17.523001 41.918999 50.915001
-16.466999 41.646000 51.555000
-16.889000 41.289001 52.196999
-17.874001 41.610001 51.418999
-17.594000 41.152000 52.094002
-17.129000 42.208000 50.403000
-15.908000 41.995998 50.925999
-19.667000 47.463001 19.811001
-20.061001 47.237000 19.025999
-20.355000 47.193001 19.665001
-19.268000 47.676998 20.854000
-19.007000 47.672001 19.950001
-19.247000 47.540001 19.007999
-19.948000 47.435001 20.629999
-19.910000 47.167999 18.348000
-20.827999 46.923000 18.729000
-20.632000 47.171001 20.243999
-21.155001 46.914001 19.648001
-21.024000 11.145000 31.990000
-20.287001 11.309000 32.290001
-19.979000 10.980000 32.761002
-20.507999 10.900000 33.355000
-24.829000 34.882000 6.402000
-24.607000 35.919998 6.446000
-24.318001 35.292999 6.173000
-25.191000 35.516998 6.678000
-25.188999 34.091000 6.557000
-25.481001 34.786999 6.706000
-24.511000 34.342999 6.200000
-24.076000 36.268002 6.254000
-23.908001 34.750000 5.924000
-23.781000 35.574001 5.964000
-25.046000 36.362000 6.682000
-24.437000 37.071999 6.628000
-28.417000 40.722000 11.430000
-29.021000 40.775002 11.981000
-28.079000 41.276001 11.941000
-27.709000 40.715000 10.859000
-28.459000 40.347000 10.907000
-29.323999 40.206001 11.385000
-27.546000 41.257000 11.459000
-28.261999 41.497002 12.524000
-27.426001 41.849998 12.383000
-28.955000 41.293999 12.684000
-29.746000 40.715000 12.522000
-29.976999 40.155998 11.883000
-14.180000 31.709000 58.780998
-13.785000 31.249001 58.837002
-13.444000 31.812000 58.605000
-13.843000 32.353001 58.542999
-14.538000 32.096001 58.719002
-15.016000 31.483999 59.007999
-14.460000 31.090000 58.978001
-13.209000 32.374001 58.431999
-13.237000 32.958000 58.250999
-13.828000 32.988998 58.318001
-14.389000 32.699001 58.491001
-15.036000 42.234001 50.938000
-14.690000 42.118999 51.810001
-14.374000 42.485001 51.324001
-15.403000 41.943001 51.437000
-14.004000 42.846001 51.047001
-21.708000 34.977001 4.944000
-20.819000 35.047001 4.645000
-21.226999 34.337002 4.751000
-22.340000 34.512001 5.165000
-22.346001 35.417000 5.310000
-21.409000 35.720001 4.989000
-21.927999 34.036999 4.923000
-19.938999 34.925999 4.363000
-20.422001 34.268002 4.441000
-20.472000 35.736000 4.661000
-20.959999 33.515999 4.594000
-21.563000 33.453999 4.793000
-5.800000 35.294998 57.705002
-5.283000 35.431000 57.473000
-5.704000 35.595001 57.250000
-6.212000 35.424000 57.419998
-6.399000 35.095001 57.868000
-5.971000 35.028999 58.042999
-5.378000 35.029999 57.911999
-6.190000 35.722000 56.981998
-6.695000 35.511002 57.162998
-6.694000 35.258999 57.588001
-18.485001 47.770000 19.288000
-18.764999 47.570999 18.600000
-19.423000 47.310001 18.040001
-19.858999 46.987999 17.177000
-20.402000 46.943001 17.848000
-18.667999 47.500999 17.937000
-19.127001 47.273998 17.441000
9.428000 35.252998 44.532001
8.897000 34.660000 44.835999
8.715000 34.903999 44.301998
9.280000 35.613998 44.002998
10.134000 35.754002 44.403999
10.120000 35.415001 44.948002
9.526000 34.933998 45.089001
8.157000 34.042999 44.714001
8.053000 34.348999 44.164001
8.325000 34.908001 43.785999
8.825000 35.582001 43.612999
-12.830000 47.372002 13.122000
-11.790000 47.562000 13.188000
-12.318000 47.174000 12.390000
-13.078000 47.098999 12.545000
-13.877000 47.118999 13.094000
-13.264000 47.479000 13.575000
-12.292000 47.625000 13.676000
-26.658001 39.754002 50.404999
-26.649000 39.125000 51.055000
-25.941000 39.618000 50.668999
-27.299000 39.416000 50.706001
-25.912001 40.273998 50.110001
-26.927999 40.286999 49.937000
-27.714001 39.921001 50.210999
-27.785999 40.467999 49.667999
-27.127001 22.591000 9.685000
-27.160000 22.898001 9.193000
-26.636000 22.488001 9.033000
-27.023001 22.028999 9.975000
-27.825001 22.759001 10.145000
-27.559999 23.326000 9.713000
-26.473000 21.955999 9.428000
-26.849001 23.365000 9.299000
-27.204000 24.247000 9.232000
-26.481001 23.999001 8.934000
-26.132000 23.098000 8.925000
-25.934999 22.326000 8.990000
-40.875999 38.543999 17.938999
-40.271999 38.526001 17.242001
-40.812000 37.988998 17.382999
-41.387001 38.549000 18.524000
-40.759998 39.278000 18.584000
-41.425999 37.750999 17.858999
-40.431999 39.035999 17.872000
-41.174999 37.303001 17.263000
-41.743999 36.915001 17.586000
-42.150002 37.008999 18.190001
-41.915001 37.750999 18.518000
-10.504000 40.601002 55.411999
-9.926000 40.813000 55.063999
-10.778000 41.007999 54.964001
-11.031000 40.305000 55.803001
-10.375000 40.181999 55.737999
-9.753000 40.208000 55.647999
-11.356000 40.735001 55.277000
-10.496000 39.783001 56.118000
-9.903000 39.740002 55.842999
9.109000 43.035000 23.853001
8.912000 43.945999 24.260000
9.545000 43.258999 24.832001
9.714000 42.124001 24.065001
9.076000 42.563999 23.268999
8.596000 43.018002 22.708000
8.443000 43.685001 23.211000
9.775000 42.526001 24.599001
10.132000 43.473999 25.836000
10.247000 42.610001 25.520000
8.280000 44.547001 23.621000
8.580000 44.867001 24.382999
-23.622999 9.850000 39.342999
-23.336000 9.952000 38.897999
-23.032000 10.064000 39.807999
-23.805000 9.773000 39.883999
-24.302999 9.607000 39.314999
-24.221001 9.731000 38.694000
-23.457001 9.924000 40.370998
-21.931000 10.335000 39.766998
-22.316000 10.310000 40.316002
-22.792999 10.209000 40.634998
-22.650000 10.217000 39.323002
-45.094002 31.183001 51.666000
-45.666000 31.884001 50.889000
-45.587002 31.052999 50.948002
-45.134998 30.534000 51.467999
-44.625999 30.007000 52.049000
-44.627998 31.221001 52.293999
-45.092999 31.958000 51.624001
-44.355000 31.917000 52.504002
7.023000 11.667000 33.216000
8.048000 11.954000 33.054001
3.486000 48.446999 33.085999
3.451000 48.726002 32.147999
2.671000 48.775002 32.571999
2.476000 48.589001 33.403999
3.397000 48.252998 33.834999
4.219000 48.383999 32.734001
4.328000 48.117001 33.557999
4.548000 48.550999 32.054001
3.882000 48.895000 31.420000
3.109000 49.077000 31.236000
2.474000 49.011002 31.687000
1.696000 48.948002 32.561001
1.715000 49.087002 31.895000
-39.321999 26.660000 14.479000
-38.924000 25.812000 14.615000
-39.544998 26.087000 14.924000
-39.993999 26.718000 15.007000
-39.710999 27.291000 14.530000
-39.020000 27.246000 14.004000
-38.813999 26.447001 14.175000
-39.254002 25.274000 15.168000
-39.782001 25.594999 15.451000
-40.254002 26.233999 15.551000
-38.729000 25.097000 14.900000
-38.319000 26.056000 14.002000
-38.294998 25.430000 14.361000
-33.918999 17.732000 54.164001
-34.035000 18.285999 54.679001
-35.185001 17.978001 53.785999
-32.757999 17.333000 54.291000
-32.679001 17.834000 54.834999
-34.805000 17.504000 53.441002
-33.758999 17.164000 53.595001
-32.583000 16.789000 53.803001
-34.332001 16.868000 52.925999
-15.239000 34.598000 57.903000
-14.427000 34.540001 57.903000
-15.015000 35.094002 57.734001
-16.044001 35.154999 57.752998
-15.835000 34.374001 57.957001
-14.834000 34.148998 58.037998
-15.458000 34.007999 58.257000
-13.676000 34.721001 57.758999
-14.330000 35.090000 57.675999
-13.961000 34.103001 58.104000
-14.822000 35.794998 57.555000
-15.483000 35.511002 57.664001
-29.219999 19.052000 14.730000
-29.806000 19.778999 14.505000
-28.945000 19.506001 14.080000
-28.614000 18.597000 14.159000
-28.520000 18.664000 15.003000
-29.563000 20.313999 13.758000
-28.851000 20.101999 13.518000
-28.135000 19.125000 14.367000
-28.139999 19.726999 13.686000
-30.563000 20.048000 14.798000
-12.468000 22.583000 58.122002
-13.127000 22.146999 57.644001
-12.061000 22.240000 57.757000
-13.605000 22.547001 57.903000
-13.067000 22.834000 58.207001
-11.439000 22.646999 58.122002
-12.183000 23.035000 58.491001
-38.602001 38.070999 15.617000
-39.290001 37.612999 15.795000
-39.220001 38.648998 16.405001
-38.542000 38.900002 16.122999
-39.245998 36.644001 15.338000
-22.545000 47.264000 27.455999
-23.239000 47.125999 26.612000
-23.250000 47.167999 27.313000
-22.893999 47.237999 28.122000
-22.143999 47.376999 28.294001
-21.957001 47.325001 27.267000
-22.481001 47.198002 26.493999
-24.864000 13.112000 21.259001
-25.535999 13.648000 20.551001
-24.507000 13.239000 20.806999
-23.790001 12.867000 21.365999
-24.174000 12.525000 22.247000
-24.983000 12.832000 21.813000
-25.784000 13.169000 21.448000
-24.254000 13.550000 19.926001
-23.524000 13.194000 20.232000
-24.930000 13.924000 19.622000
-26.444000 13.828000 20.641001
-26.447001 14.310000 19.860001
-25.635000 14.175000 19.577999
10.864000 42.710999 26.475000
11.427000 42.966000 27.395000
11.531000 42.006001 26.989000
10.912000 41.904999 26.073999
10.767000 43.591999 26.853001
-17.482000 10.938000 36.945000
-18.261999 10.987000 36.610001
-17.576000 11.057000 36.294998
-18.315001 10.905000 37.470001
-16.750999 10.997000 36.384998
-16.646999 10.959000 37.037998
-17.197001 10.970000 37.719002
-17.966000 11.072000 35.848999
-16.931999 11.039000 35.724998
-18.996000 10.869000 36.723999
-18.937000 10.929000 36.035999
-25.864000 45.910999 20.822001
-26.285000 46.042000 21.502001
-25.170000 46.219002 21.555000
-25.361000 45.897999 20.316999
-26.032000 45.577999 19.660000
-26.669001 45.743000 20.777000
-26.679001 45.547001 20.056999
-3.053000 48.794998 35.498001
-2.620000 48.485001 36.210999
-1.822000 48.592999 35.577000
-3.653000 49.021999 34.771000
-4.117000 48.914001 35.487000
-3.631000 48.554001 36.290001
-2.538000 48.891998 34.834000
-1.238000 48.230999 36.341000
-0.496000 48.296001 35.834000
-1.000000 48.618000 35.103001
-2.741000 48.231998 37.113998
-2.026000 48.250000 36.689999
6.107000 26.627001 49.444000
5.373000 26.319000 49.500999
6.062000 25.851999 49.766998
5.807000 27.527000 48.917999
5.361000 26.993999 49.165001
6.986000 26.356001 49.627998
6.507000 27.125000 49.234001
4.987000 25.808001 49.666000
6.720000 25.448999 49.956001
5.678000 25.118999 49.993999
4.335000 26.218000 49.480999
4.581000 26.888000 49.161999
18.117001 32.651001 32.101002
17.782000 31.836000 31.403999
17.615999 32.862999 31.386000
18.355000 31.719000 32.353001
18.648001 32.348000 33.026001
18.775000 31.128000 33.155998
18.264000 30.988001 32.167000
-23.636999 20.698000 57.296001
-23.974001 20.143999 56.987999
-23.011000 20.275000 56.925999
-24.445000 20.761999 57.456001
-22.868000 20.903000 57.236000
-24.108000 21.271000 57.709999
-23.284000 21.421000 57.589001
-22.488001 19.743000 56.553001
-22.186001 20.370001 56.783001
-23.344000 19.700001 56.639999
-24.271999 19.584999 56.693001
-24.917000 20.254000 57.194000
-26.627001 19.915001 12.344000
-26.798000 19.620001 12.951000
-27.348000 20.259001 12.610000
-26.226999 19.236000 12.781000
-26.481001 20.152000 11.707000
-25.945999 19.524000 12.019000
-27.003000 20.431999 12.031000
-27.664000 19.952000 13.153000
-27.854000 19.843000 12.273000
-28.177999 20.761000 12.309000
-27.679001 20.773001 12.134000
-26.948999 19.285999 13.465000
3.615000 49.439999 29.714001
3.514000 49.699001 28.943001
2.359000 49.769001 28.884001
2.192000 49.634998 29.579000
2.808000 49.397999 30.242001
3.773000 49.201000 30.584999
4.525000 49.573002 29.232000
4.720000 49.188000 30.368000
4.678000 48.848000 31.252001
5.559000 48.672001 31.340000
-19.511999 10.721000 38.826000
-19.563999 10.677000 39.671001
-20.325001 10.649000 39.152000
-20.577999 10.778000 38.410999
-19.823000 10.767000 37.823002
-19.048000 10.816000 38.273998
-18.228001 10.722000 38.730000
-18.795000 10.691000 39.271000
-21.159000 10.588000 38.837002
-20.298000 10.590000 39.868000
-21.139999 10.460000 39.409000
-19.427999 10.637000 40.333000
-18.547001 10.609000 39.848000
-31.080999 16.548000 54.133999
-31.492001 17.038000 54.490002
-31.287001 15.995000 53.492001
-30.128000 16.164000 54.075001
-32.807999 16.408001 53.214001
-29.316000 16.607000 54.701000
-30.129999 17.049999 54.943001
-29.865000 15.575000 53.573002
-28.968000 16.069000 54.213001
-15.369000 13.024000 23.423000
-15.314000 13.069000 24.021000
-16.193001 12.957000 23.399000
8.381000 33.105000 46.178001
7.980000 32.563000 46.063999
8.182000 33.203999 45.639999
8.157000 32.402000 46.604000
8.693000 33.585999 46.196999
8.419000 32.840000 46.692001
8.649000 33.794998 45.674000
-14.770000 47.883999 36.403000
-13.997000 47.925999 36.604000
-14.093000 47.923000 35.896999
-15.659000 47.917000 36.215000
-15.179000 47.811001 37.088001
-14.885000 48.071999 35.626999
-14.093000 47.741001 37.317001
-13.352000 47.828999 36.844002
-13.065000 47.980000 36.044998
-13.579000 48.020000 35.445000
-14.306000 48.046001 35.036999
-7.395000 49.563999 25.254000
-7.472000 49.606998 24.414000
-8.371000 49.493999 24.761999
-6.738000 49.657001 24.489000
-8.307000 49.423000 25.551001
-6.446000 49.620998 25.492001
-7.196000 49.568001 26.062000
-10.475000 34.592999 57.493999
-9.952000 34.130001 57.521999
-9.799000 34.783001 57.411999
-10.231000 35.165001 57.317001
-11.158000 34.493999 57.532001
-10.749000 34.080002 57.683998
-10.836000 35.091000 57.383999
-9.328000 34.449001 57.493999
-9.137000 34.949001 57.317001
-9.604000 35.344002 57.208000
-10.559000 33.582001 57.740002
-10.013000 33.518002 57.777000
-9.411000 33.771999 57.754002
-24.198000 14.147000 51.227001
-23.365999 13.638000 51.259998
-23.730000 14.191000 50.904999
-23.871000 14.814000 50.882000
-24.289000 14.805000 51.368000
-24.125999 13.472000 51.369999
-24.726000 14.124000 51.485001
-23.445000 13.037000 51.422001
-24.212999 12.771000 51.426998
-24.858000 13.378000 51.467999
-39.584000 14.798000 32.662998
-40.973999 15.497000 32.726002
-40.299999 15.286000 32.125000
16.757999 22.768000 41.187000
16.398001 22.201000 40.910999
16.983000 23.039000 40.513000
17.188999 23.500000 40.986000
17.607000 23.792000 39.993000
17.105000 22.931999 39.928001
16.618999 22.250999 39.994999
15.867000 21.768999 41.410999
15.961000 21.524000 40.695000
2.307000 10.861000 35.493000
1.367000 10.882000 35.435001
3.168000 10.920000 35.313000
3.381000 10.914000 36.580002
0.463000 10.854000 35.750999
-20.110001 47.165001 39.389000
-19.455999 47.237000 39.987999
-19.282000 47.431999 39.133999
-20.875999 46.807999 39.430000
-20.334999 46.959999 40.362000
-19.671000 47.476002 38.415001
-20.448000 47.161999 38.618000
-18.386000 47.428001 39.707001
-19.399000 47.066002 40.884998
-18.565001 47.297001 40.589001
-18.305000 47.570999 38.792000
-18.740000 47.660999 38.195000
8.893000 33.813999 46.493000
8.602000 33.263000 46.801998
9.104000 34.183998 46.036999
9.184000 34.370998 46.581001
8.737000 33.720001 47.021999
8.444000 33.080002 47.330002
8.305000 32.464001 47.133999
-21.649000 10.476000 40.685001
-21.245001 10.570000 41.180000
-22.142000 10.381000 41.243000
-21.118999 10.469000 40.108002
-20.518000 10.627000 40.591000
-23.160000 10.204000 41.122002
-22.174999 10.535000 42.028999
-23.035000 10.226000 41.585999
-21.333000 10.687000 41.914001
-20.754999 10.831000 41.886002
-20.368000 10.602000 41.105999
-23.979000 35.733002 54.926998
-24.296000 36.133999 54.452000
-25.049999 35.748001 54.622002
-23.405001 36.380001 54.493999
-23.146999 35.695999 55.109001
-23.822001 35.115002 55.431000
-24.636000 35.229000 55.171001
-20.503000 31.910999 4.522000
-20.618999 30.934999 4.681000
-21.209000 31.684999 4.763000
-20.764000 32.589001 4.539000
-19.983999 32.811001 4.338000
-20.046000 31.340000 4.444000
-19.700001 32.053001 4.315000
-19.406000 31.318001 4.199000
-19.794001 30.541000 4.420000
-46.919998 21.780001 29.636999
-47.112999 21.429001 30.554001
-47.455002 22.113001 30.113001
-47.439999 22.757000 29.216000
-46.758999 22.115999 28.833000
-46.308998 21.370001 29.141001
-46.382000 20.993000 29.884001
-45.736000 20.933001 28.805000
-45.597000 20.400999 29.416000
-46.032001 21.579000 28.344000
-32.895000 37.501999 51.051998
-33.037998 36.580002 51.796001
-32.334000 37.164001 51.570999
-32.264999 38.234001 50.712002
-32.952000 38.210999 50.431000
-33.639999 38.096001 50.230999
-33.707001 37.126999 51.050999
-31.903999 37.917000 51.084000
-29.874001 43.955002 18.247000
-29.507000 44.304001 18.885000
-30.389999 43.682999 17.969999
-29.224001 44.137001 18.275000
-29.584000 43.810001 17.694000
-30.306000 43.417999 17.395000
-31.025000 43.414001 17.789000
-35.483002 17.915001 19.806999
-34.799999 17.566999 19.875999
-35.286999 17.297001 20.488001
-34.693001 18.101999 19.183001
-36.179001 17.659000 20.576000
-35.346001 18.612000 18.910000
-36.000000 18.219000 19.714001
-34.743999 19.191999 17.962999
-34.425999 18.632000 18.462000
-36.279999 18.746000 19.250000
-36.026001 19.160999 18.611000
-35.474998 19.323999 18.194000
-20.277000 33.469002 4.391000
-21.415001 32.616001 4.788000
-22.150000 32.944000 5.017000
-22.222000 28.014000 5.630000
-21.802000 26.931999 5.741000
-22.556999 26.968000 5.992000
-22.905001 27.938000 5.935000
-22.391001 29.028999 5.490000
-21.496000 27.672001 5.454000
-21.736000 28.666000 5.343000
-22.003000 29.972000 5.258000
-21.368999 29.465000 5.143000
-21.018000 28.542999 5.172000
-21.594000 12.825000 49.283001
-21.614000 12.401000 48.410000
-22.240000 13.187000 48.863998
-21.302999 12.533000 49.981998
-21.121000 12.173000 49.123001
-22.389000 13.627000 49.858002
-21.889999 13.290000 50.278999
-22.733999 13.804000 49.250000
-22.688000 13.612000 48.433998
-22.216000 12.745000 47.992001
-21.263000 11.754000 48.262001
-21.771000 11.902000 47.540001
-26.056999 34.848000 6.942000
-25.764999 34.053001 6.790000
-11.354000 11.242000 38.172001
-11.093000 11.077000 38.858002
-11.906000 11.197000 38.389000
-11.284000 11.332000 37.564999
-10.642000 11.267000 38.390999
-12.149000 11.300000 37.712002
-23.608999 10.966000 50.393002
-23.223000 10.470000 49.549999
-22.851000 11.167000 50.611000
-23.549999 11.659000 51.084999
-24.378000 11.323000 50.691002
-24.129000 10.518000 49.744999
8.223000 28.121000 48.787998
7.598000 28.368000 48.588001
7.532000 27.743000 48.950001
9.008000 28.200001 48.758999
8.626000 28.666000 48.445000
8.087000 28.917999 48.266998
8.130000 27.275999 49.209999
8.673000 27.663000 49.064999
-47.719002 29.209000 25.104000
-47.723000 30.486000 24.910999
-47.320000 29.441000 24.292999
-47.331001 28.707001 24.563999
-47.477001 27.916000 25.181000
-48.013000 29.379999 25.709999
-47.972000 30.117001 25.407000
-47.926998 28.327999 25.836000
-47.508999 31.087999 24.440001
-47.396999 30.205000 24.296000
-48.206001 31.028999 25.837999
-47.915001 31.433001 25.191000
-46.964001 29.881001 23.607000
-46.770000 29.034000 23.490000
-40.908001 26.393999 16.136000
-40.838001 25.580000 16.473000
-41.470001 26.296000 16.768000
-40.319000 25.620001 15.925000
-40.676998 26.941999 15.636000
-41.521000 27.070999 16.461000
-40.695999 24.695999 16.898001
-41.277000 25.451000 17.058001
-40.327000 25.035000 16.268999
-41.925999 26.051001 17.434999
-42.207001 26.882999 17.326000
-35.118000 44.472000 27.610001
-35.801998 44.219002 27.062000
-36.175999 44.209000 27.818001
-34.483002 44.679001 27.035000
-35.054001 44.369999 26.422001
-34.287998 44.854000 28.149000
-35.474998 44.469002 28.354000
-36.451000 44.223000 28.367001
-17.642000 10.585000 39.833000
-17.763000 10.650000 39.285000
-18.163000 10.766000 40.646000
-16.742001 10.452000 39.568001
-17.490999 10.736000 40.488998
-17.844000 10.963000 41.450001
-18.826000 11.166000 41.873001
-19.222000 10.897000 41.123001
-18.277000 10.490000 40.372002
-31.018000 17.886000 17.236000
-30.740999 17.063999 17.809000
-31.476000 17.705000 17.705000
-31.441000 18.542000 16.882999
-31.951000 18.403000 17.350000
-31.511999 17.229000 18.139999
-32.212002 17.882999 18.014999
-42.344002 38.926998 45.714001
-43.391998 38.417999 45.699001
-41.831001 39.563000 45.015999
-42.674999 39.262001 45.029999
-43.543999 38.792000 45.091999
-21.423000 13.186000 46.865002
-20.936001 13.387000 47.460999
-22.052999 13.419000 47.374001
-20.042000 12.775000 46.333000
-22.091999 12.989000 46.473000
-21.013000 12.788000 46.004002
-21.851999 12.520000 45.424999
-20.993999 12.395000 45.025002
-19.780001 12.367000 45.342999
-7.448000 24.034000 57.914001
-7.579000 23.465000 57.629002
-6.651000 23.868000 57.276001
-8.151000 24.259001 58.338001
-8.214000 23.524000 58.051998
-7.444000 24.742001 58.277000
-6.840000 24.466999 57.764999
-8.072000 22.754000 57.514000
-7.342000 22.797001 57.195000
-6.835000 23.297001 57.236000
-10.513000 46.251999 45.278999
-10.493000 46.037998 46.050999
-9.895000 46.148998 45.532001
-9.739000 46.525002 44.735001
-11.023000 46.271999 44.659000
-11.218000 46.089001 45.560001
-10.291000 46.423000 44.558998
-32.734001 42.696999 44.487000
-32.848000 42.304001 45.470001
-32.306999 42.758999 44.938999
-32.469002 43.062000 43.985001
-33.356998 42.865002 43.931999
-33.299000 42.465000 44.645000
-16.770000 10.827000 38.278999
-16.122999 10.693000 38.749001
-17.170000 10.721000 38.879002
-15.853000 10.799000 38.088001
-17.889000 10.885000 38.233002
-16.187000 10.993000 37.626999
-26.011000 45.806000 38.539001
-26.570999 46.098999 38.078999
-26.878000 45.889000 38.706001
-26.643999 45.562000 39.236000
-26.066999 45.390999 39.401001
-25.896000 46.097000 37.792000
-25.438000 45.598999 38.898998
-25.261000 45.957001 37.905998
-27.482000 45.949001 38.463001
-27.711000 45.587002 39.209000
-26.292999 46.377998 37.271000
-27.195000 46.291000 37.695000
-19.972000 11.988000 29.973000
-19.591999 12.176000 29.444000
-19.216999 12.265000 30.056000
-20.063000 11.847000 30.604000
-20.677999 11.672000 29.948999
-19.138000 12.143000 30.690001
-20.198999 11.949000 29.141001
-20.742001 11.718000 29.358999
-19.468000 11.952000 31.145000
-19.976000 11.651000 31.400000
-20.497000 11.584000 30.972000
-21.007999 11.482000 30.374001
-20.162001 37.129002 54.744999
-20.462999 37.620998 54.209999
-21.010000 36.929001 54.567001
-19.695000 37.734001 54.375999
-19.841999 36.564999 55.328999
-19.344000 37.311001 54.945999
-20.600000 36.506001 55.077000
-21.426001 36.194000 55.159000
-20.724001 35.925999 55.584000
-49.693001 32.958000 39.712002
-49.952999 32.445000 38.923000
-50.026001 31.856001 39.681999
-49.458000 33.734001 39.770000
-49.708000 33.485001 38.848999
-49.730999 32.484001 40.283001
-49.390999 33.365002 40.844002
-46.624001 24.207001 26.476000
-46.266998 23.212999 26.886000
-46.813999 23.752001 27.158001
-47.248001 24.476000 27.132999
-47.222000 25.170000 26.547001
-46.655998 24.930000 25.934000
-46.014000 23.757999 26.025000
-45.875000 22.363001 27.156000
-46.582001 22.927000 27.622000
-45.716999 22.959999 26.354000
-47.155998 23.608999 27.813999
5.971000 47.778000 33.182999
6.827000 47.417999 33.481998
6.548000 48.029999 32.412998
5.111000 48.141998 32.793999
5.127000 47.882000 33.505001
5.604000 47.459000 34.162998
6.307000 47.233002 34.153000
5.530000 48.320000 32.181999
-21.624001 47.370998 26.632999
-21.976999 47.224998 25.865999
-22.865999 47.057999 25.625000
-24.243000 47.016998 26.077999
-24.051001 47.139000 26.940001
-17.360001 24.254000 58.786999
-17.485001 24.747000 59.046001
-18.003000 24.082001 58.653000
-16.649000 24.422001 58.832001
-17.009001 23.747999 58.479000
-18.041000 25.421000 59.367001
-18.193001 24.806999 59.096001
-16.427000 24.934999 59.102001
-17.145000 25.180000 59.280998
-2.644000 46.724998 42.595001
-3.089000 46.290001 43.396000
-2.154000 46.466999 43.042000
-1.805000 46.771999 42.341000
-2.610000 46.980999 41.903000
-3.380000 46.841999 42.327999
-3.353000 46.532001 42.862999
-44.047001 19.142000 28.808001
-44.514000 19.712999 28.622000
-43.671001 19.208000 28.017000
-44.179001 18.948999 29.465000
-44.897999 19.729000 29.363001
-43.389999 18.596001 28.618000
-44.409000 19.990999 27.976000
-43.623001 19.687000 27.254999
-42.887001 18.844999 27.240999
-42.875000 18.438000 27.990000
-45.133999 20.382000 28.612000
8.262000 41.200001 19.077000
7.493000 42.062000 18.528000
7.878000 41.855999 19.347000
8.584000 41.249001 19.867001
9.146000 40.734001 19.638000
8.741000 40.696999 18.837000
7.849000 41.384998 18.259001
7.307000 42.658001 18.978001
7.463000 42.840000 19.684000
8.071000 41.965000 20.059000
6.809000 42.963001 18.068001
7.167000 42.205002 17.804001
9.451000 47.681000 29.761000
8.956000 48.153000 30.091999
9.837000 47.550999 30.948000
9.152000 47.633999 28.830999
8.658000 48.160000 28.966000
10.017000 46.883999 29.686001
10.177000 47.125000 30.493000
9.043000 47.956001 31.129999
-11.240000 36.106998 2.382000
-10.814000 35.847000 1.962000
-11.697000 35.313999 2.002000
-11.129000 36.722000 2.709000
-10.411000 36.820999 2.630000
-11.863000 36.518002 2.808000
-10.284000 36.335999 2.158000
-12.034000 35.740002 2.370000
-10.144000 35.666000 1.767000
-11.047000 35.235001 1.712000
-11.779000 34.589001 1.676000
-12.505000 34.751999 1.918000
-18.872000 23.922001 58.615002
-19.438000 24.572001 58.995998
-19.900999 24.282000 58.784000
-19.464001 23.554001 58.415001
-18.634001 23.191000 58.195000
-18.136999 23.566000 58.377998
-19.992001 23.867001 58.659000
-18.667000 24.457001 58.987999
-46.035000 32.245998 21.941000
-46.514000 32.632000 22.757000
-46.144001 33.028000 22.186001
-45.641998 32.499001 21.322001
-45.841999 31.518999 21.610001
-46.355999 31.691000 22.472000
-15.126000 46.601002 12.591000
-14.876000 46.966999 13.235000
-14.340000 46.813000 12.563000
-14.497000 46.464001 11.854000
-15.744000 46.669998 12.928000
-15.404000 46.261002 12.006000
-14.081000 47.396000 13.817000
-15.502000 47.058998 13.782000
-14.787000 47.241001 13.854000
-13.793000 39.113998 56.264999
-13.099000 39.227001 56.507999
-13.495000 39.540001 56.020000
-13.189000 38.632000 56.835999
-14.008000 38.659000 56.583000
-14.372000 39.312000 55.812000
-14.760000 38.882000 56.119999
-31.844000 19.674000 16.009001
-32.084000 20.417999 15.467000
-31.330999 20.072001 15.355000
-32.238998 19.165001 16.784000
-32.605999 20.014999 16.152000
-31.479000 19.051001 16.431999
-32.745998 20.839001 15.367000
-31.386999 20.625000 14.819000
-32.159000 21.077999 14.788000
-45.001999 30.375999 20.386000
-45.500999 31.021000 21.070000
-44.876999 31.261000 20.118999
-44.868000 29.407000 20.427999
-45.502998 30.219999 21.170000
-44.480999 29.839001 19.719000
-44.407001 30.628000 19.483999
-1.483000 50.077000 26.929001
-1.182000 50.106998 26.073000
-50.618999 23.358999 36.242001
-50.901001 24.379999 35.717999
-50.444000 23.444000 35.252998
-50.764000 23.535000 37.227001
-51.011002 24.357000 36.569000
-50.074001 22.518999 35.687000
-50.277000 22.577000 36.977001
-50.376999 24.131001 34.210999
-50.007999 22.990000 34.521000
-50.681000 24.419001 34.902000
-40.903000 21.340000 20.910999
-41.341999 21.957001 20.761000
-40.654999 21.851999 19.851000
-40.452000 21.195000 20.377001
-40.273998 20.584000 21.010000
-40.727001 20.580000 21.667000
-41.157001 21.070000 21.643000
-41.606998 21.580000 21.608999
-40.900002 22.577000 19.344000
-40.308998 22.115999 18.985001
-41.200001 22.344999 20.080999
-39.959999 21.358999 19.528000
-41.685001 22.830000 20.127001
-41.921001 22.424000 21.066999
-18.666000 14.148000 15.162000
-19.576000 14.381000 15.170000
-19.201000 14.521000 14.463000
-18.573000 14.410000 14.135000
-17.948000 14.079000 14.781000
-18.150999 13.861000 15.797000
-18.973000 13.927000 16.054001
-19.738001 14.086000 16.070999
-19.173000 13.723000 16.940001
-18.216000 13.645000 16.670000
-47.362000 37.125000 42.084000
-47.611000 37.374001 41.228001
-47.716999 36.867001 41.556999
-47.686001 36.356998 42.132000
-47.249001 36.792999 42.849998
-47.131001 37.742001 41.680000
-46.967999 37.467999 42.500000
-48.092999 36.910000 40.768002
-48.061001 36.393002 41.206001
-38.483002 20.799999 18.507000
-37.582001 20.761000 17.924999
-37.971001 20.385000 18.511999
-38.709999 20.361000 19.343000
-39.305000 20.823000 19.408001
-38.319000 21.325001 17.792000
-39.205002 21.212999 18.761999
-38.912998 21.495001 18.160000
-23.246000 45.410999 40.317001
-23.514000 45.205002 41.175999
-22.726999 45.506001 41.028000
-22.256001 45.882999 40.486000
-22.764000 45.761002 39.763000
-23.371000 45.550999 39.473000
-24.027000 45.138000 40.292000
-24.336000 44.988998 40.963001
-24.290001 44.806000 41.662998
-23.434999 44.937000 41.976002
-22.632000 45.459999 41.852001
-1.296000 41.952999 50.551998
-0.788000 41.887001 50.405998
-0.973000 42.242001 49.931999
-1.544000 41.618999 51.099998
-0.866000 41.473999 50.839001
-1.885000 42.109001 50.897999
-1.626000 42.367001 50.254002
-2.230000 42.455002 50.368000
-2.471000 42.179001 50.953999
-2.404000 41.882000 51.452000
-2.171000 49.539001 32.078999
-1.396000 49.516998 31.534000
-2.234000 49.633999 30.919001
-2.893000 49.616001 31.547001
-0.963000 49.327999 32.403000
-2.013000 49.318001 32.846001
-3.143000 49.757000 30.302000
-3.479000 49.737999 30.995001
-2.082000 49.757999 30.091000
-0.997000 49.611000 30.648001
-0.299000 49.405998 31.556000
-12.500000 38.612999 56.896999
-12.542000 39.333000 56.500000
-12.811000 39.800999 56.030998
-13.636000 38.064999 56.971001
-11.877000 38.410999 56.909000
-12.014000 39.084000 56.688000
-34.780998 38.248001 49.573002
-35.490002 38.493999 49.070999
-35.490002 37.665001 49.873001
-34.379002 39.144001 48.891998
-34.450001 37.501999 50.416000
-33.984001 38.564999 49.624001
-41.237000 15.031000 44.488998
-40.376999 14.730000 44.688000
-41.182999 15.254000 45.667000
-42.016998 15.775000 46.027000
-42.133999 15.676000 45.126999
-40.221001 14.386000 43.603001
-41.618999 15.031000 43.465000
-40.752998 14.488000 42.993000
-27.961000 42.011002 13.078000
11.920000 42.278000 36.292000
11.597000 41.368999 36.925999
12.566000 41.366001 36.713001
11.349000 43.104000 36.043999
11.075000 42.266998 36.652000
12.553000 42.492001 35.887001
12.007000 43.372002 35.506001
-43.299000 15.430000 41.023998
-42.855999 15.145000 39.853001
-42.362000 14.930000 40.398998
-42.575001 15.121000 41.404999
-43.591000 15.741000 41.827000
-44.171001 15.980000 40.733002
-43.518002 15.527000 39.724998
-44.426998 16.389000 42.168999
-44.284000 16.041000 39.500000
-44.893002 16.643999 41.490002
-44.943001 16.561001 40.316002
-18.259001 19.632000 5.016000
-17.922001 20.025000 4.389000
-17.813999 19.254999 4.618000
-18.093000 18.719000 5.137000
-18.634001 19.399000 5.638000
-18.646999 20.264999 5.374000
-18.308001 20.790001 4.693000
-18.917000 18.566000 5.407000
-18.844999 18.722000 6.180000
-19.035999 19.593000 6.135000
-19.447001 19.608000 5.368000
-25.118000 18.386999 12.585000
-25.198000 17.931000 13.274000
-26.021999 18.656000 13.323000
-25.604000 18.879000 12.496000
-24.715000 18.565001 11.865000
-24.528000 17.864000 12.540000
-24.591000 17.044001 13.755000
-25.316999 17.521000 13.943000
-26.007000 18.009001 14.087000
-24.104000 17.101000 13.131000
-0.591000 50.158001 25.424000
-0.279000 50.109001 26.153999
0.488000 50.194000 26.075001
0.425000 50.174000 25.395000
-1.085000 50.105000 24.778000
-0.021000 50.136002 24.676001
-0.828000 50.053001 24.038000
-1.623000 50.014999 24.171000
-2.324000 50.011002 24.294001
-23.667999 25.509001 6.975000
-23.855000 24.527000 7.397000
-24.462000 25.061001 7.564000
-23.848000 26.323000 6.861000
-22.849001 25.886000 6.452000
-24.454000 26.047001 7.282000
-23.198999 24.864000 6.923000
-23.809999 23.539000 7.700000
-24.544001 23.871000 7.906000
-23.160000 23.917999 7.285000
-25.101000 24.577999 7.982000
-25.070000 25.785999 7.710000
-41.601002 14.570000 39.957001
-40.936001 14.312000 40.270000
-41.662998 14.683000 41.308998
-42.035999 14.784000 39.105000
-41.303001 14.517000 38.459999
-40.821999 14.296000 39.108002
-42.695000 15.334000 42.338001
-42.123001 15.144000 42.814999
-41.141998 14.527000 41.966000
-40.066002 13.977000 39.504002
-40.303001 14.033000 40.613998
-18.535000 38.794998 54.011002
-17.677000 39.313999 54.237000
-18.271999 39.542000 53.741001
-19.042999 39.125999 53.514999
-19.224001 38.441002 53.991001
-18.850000 38.082001 54.523998
-18.115999 38.654999 54.521999
-17.646000 40.044998 53.737000
-18.033001 40.345001 53.028000
-17.485001 38.601002 54.924000
-17.136000 39.091000 54.660999
-16.924000 39.685001 54.223000
6.626000 27.863001 48.797001
7.160000 27.268999 49.159000
5.915000 28.141001 48.494999
6.890000 28.443001 48.418999
7.650000 26.684000 49.477001
-32.930000 30.875999 56.011002
-33.805000 30.716000 55.987000
-33.462002 30.051001 56.449001
-32.362000 30.468000 56.398998
-33.175999 31.486000 55.598000
-31.861000 31.155001 56.143002
-32.301998 31.570999 55.745998
-32.757999 29.792999 56.743999
-34.228001 29.160000 56.873001
-33.327999 29.235001 56.970001
-34.348999 29.982000 56.333000
-34.770000 30.542000 55.917000
-34.261002 31.174000 55.619999
9.078000 44.271999 36.644001
9.663000 43.816002 36.452000
9.394000 44.591999 36.073002
8.792000 44.220001 37.213001
9.340000 43.669998 37.077999
8.536000 44.813000 36.770000
8.746000 44.903000 36.215000
10.469000 43.259998 36.341000
10.127000 44.129002 35.980000
9.827000 43.157001 36.889000
9.881000 44.805000 35.561001
9.187000 45.255001 35.556999
14.191000 38.713001 23.780001
14.220000 38.215000 23.298000
14.007000 38.852001 23.243999
13.723000 39.478001 23.497000
14.454000 38.412998 24.195999
13.885000 39.331001 24.096001
14.213000 39.006001 24.607000
13.897000 38.652000 22.715000
13.721000 39.391998 22.952999
14.151000 37.625999 23.009001
13.989000 38.041000 22.667999
14.424000 37.707001 23.600000
-21.914000 23.289000 58.386002
-21.016001 23.054001 58.181999
-21.267000 23.622000 58.515999
-21.801001 24.011999 58.825001
-22.479000 23.546000 58.625999
-22.796000 22.955999 58.303001
-21.764999 22.715000 58.077999
-15.172000 48.764999 23.069000
-14.275000 48.972000 22.730000
-14.605000 48.875000 21.933001
-15.498000 48.740002 22.055000
-16.098000 48.571999 22.933001
-15.220000 48.762001 24.063999
-14.277000 48.942001 23.594999
-16.086000 48.591000 23.889000
-33.679001 44.289001 39.741001
-33.070000 44.625999 39.077999
-33.894001 44.556999 38.542999
-34.674999 44.459999 38.465000
11.381000 38.345001 19.341000
12.142000 38.217999 19.867001
11.805000 37.785000 19.617001
11.385000 37.692001 19.134001
10.798000 38.435001 18.773001
10.703000 38.998001 19.112000
11.507000 38.855000 19.612000
12.123000 39.146000 20.024000
12.715000 38.326000 20.296000
12.705000 37.611000 20.503000
12.183000 37.424000 20.056000
11.857000 37.071999 19.573999
18.034000 27.025000 31.091999
18.291000 26.726999 31.952000
18.002001 26.125000 31.532000
17.833000 26.566999 30.650999
17.775999 27.353001 30.295000
18.132999 27.691999 31.230000
17.820999 28.138000 30.517000
18.330000 27.691000 31.858999
18.584000 27.129000 32.674000
18.462000 26.164000 32.886002
18.240999 25.639000 32.476002
17.948999 25.268999 31.865999
-45.030998 28.825001 51.203999
-45.591999 29.063000 50.490002
2.019000 40.455002 50.566002
2.357000 40.819000 50.460999
1.675000 41.030998 50.463001
1.462000 40.514000 50.626999
2.486000 40.080002 50.636002
2.804000 40.546001 50.495998
2.009000 39.976002 50.758999
1.570000 40.041000 50.841000
2.231000 41.271999 50.317001
1.590000 41.533001 50.210999
1.054000 41.146999 50.438999
2.882000 41.226002 50.326000
-43.958000 35.140999 19.540001
-43.695000 35.917999 19.573000
-43.445000 35.297001 18.921000
-43.603001 34.495998 18.833000
-44.154999 34.303001 19.532000
-44.568001 34.723999 20.266001
-44.292999 35.532001 20.215000
-43.036999 35.007000 18.271000
-43.191002 36.139000 18.973000
-42.979000 35.664001 18.489000
-43.299999 36.726002 19.517000
-43.948002 36.347000 20.226999
-7.767000 11.478000 46.480000
-8.497000 11.128000 45.456001
-7.784000 11.168000 45.320000
-6.789000 11.789000 46.908001
-7.128000 11.989000 47.602001
-6.976000 11.333000 45.757000
-8.306000 11.617000 47.073002
-9.027000 11.195000 46.200001
-8.381000 10.940000 44.209000
-9.431000 10.888000 45.122002
-9.064000 10.846000 44.374001
-37.278999 16.874001 51.422001
-36.865002 17.048000 52.387001
-36.453999 17.441999 52.492001
-36.487000 16.829000 51.903999
-6.354000 18.350000 54.162998
-5.718000 17.917999 53.578999
-5.297000 18.434999 53.652000
-5.897000 18.819000 54.242001
-6.943000 18.850000 54.731998
-6.650000 17.856001 54.012001
-7.288000 18.304001 54.591000
-4.842000 17.966999 53.111000
-4.392000 18.546000 53.257000
-5.043000 19.041000 53.845001
-6.045000 17.377001 53.389000
-5.207000 17.370001 52.942001
-6.869000 49.043999 34.443001
-7.311000 48.764000 35.162998
-6.275000 48.997002 34.970001
-6.072000 49.241001 34.147999
-6.987000 49.146999 33.745998
-5.145000 49.346001 33.900002
-6.052000 49.401001 33.442001
-5.438000 49.178001 34.661999
-21.833000 45.976002 41.388000
-20.938999 46.560001 41.087002
-21.584000 46.314999 40.603001
-21.042000 46.335999 41.924999
-21.871000 45.844002 42.354000
-16.232000 40.199001 54.002998
-16.364000 40.639000 53.404999
-16.865000 40.188000 53.709000
-16.195000 39.769001 54.549999
-15.551000 40.179001 54.306999
-15.723000 40.654999 53.652000
-16.799999 40.773998 52.911999
-17.299999 40.401001 53.208000
-15.980000 41.014000 52.902000
-30.839001 45.590000 23.180000
-30.041000 45.837002 23.268999
-30.573999 45.383999 22.327999
-31.327000 45.585999 23.639000
-30.381001 46.025002 24.243000
-31.485001 45.158001 22.473000
-29.257000 45.945000 22.948999
-29.677999 45.596001 22.239000
-29.313000 46.200001 23.886000
-16.363001 41.143002 52.405998
-15.903000 41.542000 51.813000
-15.159000 41.675999 52.021999
-15.582000 41.293999 52.437000
-9.517000 36.584999 56.949001
-10.150000 37.144001 56.931999
-10.239000 36.639000 57.007000
-9.429000 35.914001 56.992001
-8.896000 36.230000 56.762001
-10.101000 36.153999 57.076000
-8.824000 36.757999 56.570999
-9.539000 37.124001 56.694000
-8.665000 35.828999 56.907001
-8.293000 36.344002 56.597000
-18.129000 11.673000 33.848999
-18.299999 11.138000 33.508999
-18.805000 11.576000 33.441002
-17.549999 11.813000 33.588001
-17.355000 11.710000 34.334000
-18.372999 11.796000 33.091999
-17.850000 11.215000 33.896000
-17.624001 11.405000 34.472000
-38.134998 41.362000 43.662998
-38.877998 40.880001 44.129002
-40.036999 40.443001 44.361000
-27.771000 46.499001 24.049000
-28.205999 46.591999 24.610001
-27.108000 46.720001 24.591999
-26.867001 46.563999 24.021999
-27.429001 46.345001 23.302999
-28.160999 46.265999 23.107000
-28.658001 46.303001 23.679001
-27.905001 18.215000 15.358000
-27.879999 17.576000 16.105000
-28.437000 18.035000 15.750000
-27.261000 17.726999 15.581000
-27.552000 18.532000 14.772000
-49.764000 29.160000 30.142000
-49.784000 30.167999 30.028999
-49.511002 29.469000 29.278999
-49.590000 28.549000 29.722000
-49.844002 28.224001 30.554001
-49.930000 29.693001 30.691999
-50.056000 31.103001 30.920000
-49.786999 31.042000 29.889000
-49.527000 30.646999 29.061001
-49.292999 29.855000 28.554001
-49.307999 28.493999 28.975000
-4.672000 43.796001 50.050999
-5.004000 43.695000 50.798000
-4.332000 43.582001 50.516998
-4.704000 43.997002 49.278999
-5.277000 44.159000 49.966999
-5.553000 44.001999 50.667999
-4.204000 43.751999 49.577999
-4.469000 43.407001 51.344002
-5.271000 43.563999 51.536999
-23.733999 9.565000 35.431999
-24.677000 9.543000 35.039001
-23.802999 9.555000 34.284000
-23.483999 9.723000 36.153000
-24.231001 9.545000 36.441002
-23.229000 9.737000 34.894001
-24.360001 9.260000 35.365002
-22.771000 9.914000 35.907001
-23.297001 9.786000 33.987999
-24.636000 9.517000 33.980999
-23.936001 9.634000 33.376999
-26.076000 9.670000 35.681000
-25.333000 9.586000 34.868000
-22.167999 16.021999 53.992001
-22.899000 16.334999 54.103001
-22.829000 16.058001 53.622002
-22.204000 16.349001 54.493999
-21.499001 15.950000 54.369999
-21.945999 15.677000 53.568001
6.744000 44.911999 20.917000
7.167000 44.859001 21.799000
7.402000 44.206001 21.447001
6.030000 45.917000 20.850000
6.594000 45.594002 21.504999
7.099000 44.124001 20.597000
6.588000 44.638000 20.047001
6.131000 45.438000 20.351000
7.739000 44.333000 22.370001
7.566000 43.592999 21.041000
8.030000 43.675999 22.250999
8.029000 43.220001 21.761000
7.153000 45.299000 22.274000
13.123000 36.651001 21.766001
12.818000 36.873001 21.061001
13.251000 37.308998 21.577000
13.599000 36.625000 22.535999
13.344000 36.153000 22.455999
13.501000 37.133999 22.146000
12.893000 36.202999 21.305000
13.073000 36.095001 21.948999
13.325000 35.424999 22.479000
13.601000 35.806999 22.941999
-18.843000 25.796000 4.442000
-18.639999 24.844000 4.413000
-19.448999 25.306999 4.946000
-19.542000 26.166000 4.895000
-19.076000 26.629000 4.501000
-18.482000 26.525999 3.994000
-18.277000 25.433001 3.895000
-48.856998 36.063999 38.709999
-49.161999 35.639999 38.180000
-49.160000 35.139999 39.028999
-48.659000 36.342999 39.407001
-49.013000 36.626999 38.806000
-48.881001 35.577000 39.632000
-48.448002 36.919998 40.154999
-48.425999 36.264999 40.237000
-44.973999 35.119999 20.962999
-45.249001 34.407001 21.121000
-45.580002 35.144001 21.834000
-44.575001 36.006001 20.863001
-45.229000 35.736000 21.577000
-44.796001 33.928001 20.247000
-19.422001 43.007000 49.460999
-18.948999 43.435001 48.922001
-19.716000 43.368000 48.846001
-19.951000 42.580002 49.826000
-18.933001 42.693001 49.851002
-18.372999 43.167000 49.224998
-20.302000 42.908001 49.313999
-19.205000 43.889999 48.303001
-20.492001 43.384998 48.702999
-19.978001 43.917000 48.148998
-18.396000 43.820000 48.506001
-25.659000 9.651000 33.812000
-27.219000 9.753000 34.414001
-26.844999 9.748000 33.687000
-26.063000 9.818000 33.101002
-26.424999 9.669000 34.832001
-24.820999 9.699000 33.212002
-24.990000 9.723000 32.623001
-23.990999 9.740000 32.591999
-9.149000 38.285999 56.376999
-9.791000 38.898998 56.365002
-9.709000 38.320999 56.566002
-9.247000 38.922001 56.191002
-8.467000 37.883999 56.157001
-8.685000 38.375000 56.009998
-9.500000 37.756001 56.574001
-8.860000 37.667000 56.352001
-10.232000 38.563000 56.632999
-10.082000 37.762001 56.792000
-9.842000 39.351002 56.138000
-10.431000 39.306000 56.487999
-18.867001 12.977000 19.756001
-18.077999 13.034000 19.740000
-18.326000 12.821000 20.618999
-19.600000 13.165000 18.965000
-18.802999 13.153000 18.975000
-19.952999 12.917000 19.811001
-19.209000 12.834000 20.316999
-27.023001 45.931999 21.587999
-26.478001 46.279999 22.361000
-27.811001 45.952000 22.091999
-27.229000 46.168999 22.483999
-27.406000 45.513000 20.481001
-27.665001 45.669998 21.225000
-44.520000 40.620998 40.215000
-44.105000 40.548000 41.383999
-44.702999 40.416000 40.855999
-44.730000 40.734001 39.516998
-44.147999 41.064999 39.264000
-3.577000 39.701000 4.522000
-4.286000 39.602001 4.400000
-4.752000 39.105000 3.847000
-3.055000 40.051998 5.051000
-3.839000 40.151001 5.046000
