1536
-63.067001 -22.007999 29.917999
-62.464001 -22.424000 31.275000
-62.015999 -23.246000 31.070000
-63.146000 -21.594000 30.841000
-27.112000 -8.378000 10.862000
-27.945999 -8.247000 11.234000
-27.525000 -9.041000 11.132000
-26.162001 -8.225000 10.450000
-26.566999 -8.987000 10.731000
-28.327999 -9.148000 11.379000
-28.726999 -8.460000 11.685000
-28.424999 -7.682000 11.571000
-44.036999 10.599000 -19.320999
-44.980999 10.918000 -18.847000
-44.687000 10.052000 -19.049000
-44.146999 11.271000 -19.118000
-52.613998 -26.562000 42.277000
-53.083000 -25.679001 42.903000
-51.752998 -27.312000 42.314999
-52.216999 -27.527000 41.487999
-53.334999 -26.426001 41.625999
-52.339001 -25.910999 43.380001
-52.084999 -26.584000 42.841999
-52.983002 -27.082001 41.110001
-52.827999 -25.157000 43.808998
-54.832001 -28.474001 35.983002
-54.075001 -28.915001 36.402000
-54.578999 -29.089001 35.237999
-55.389000 -27.785999 36.549000
-54.561001 -28.292999 36.898998
-55.728001 -28.056999 35.490002
-55.292999 -28.573999 35.188000
-53.772999 -29.400999 35.748001
-53.806999 -29.735001 34.944000
-54.912998 -29.122999 34.553001
-36.306000 0.915000 42.966000
-36.167000 1.534000 42.615002
-36.396000 0.772000 42.568001
-36.571999 0.198000 42.870998
-36.615002 0.857000 43.478001
-35.731998 1.214000 42.028999
-35.705002 0.657000 41.861000
-35.884998 0.266000 42.119999
-36.106998 2.228000 42.527000
-35.938999 1.957000 42.025002
-33.328999 -12.994000 31.042999
-33.195999 -12.221000 30.877001
-33.019001 -12.974000 29.974001
-33.493999 -12.458000 31.892000
-33.613998 -13.469000 31.854000
-33.339001 -13.716000 30.771999
-63.070000 -22.562000 24.382999
-63.483002 -21.985001 23.839001
-63.631001 -21.778999 24.795000
-62.491001 -23.365999 23.830999
-62.941002 -22.754000 23.437000
-62.566002 -23.329000 25.049000
-63.071999 -22.587999 25.302000
-63.327000 -22.209999 26.115999
-63.873001 -21.382000 25.427999
-64.043999 -21.108000 24.044001
-63.287998 -22.131001 22.881001
-63.771000 -21.406000 23.093000
-63.928001 6.386000 10.432000
-64.410004 5.427000 10.283000
-64.160004 5.807000 9.673000
-63.465000 7.456000 10.276000
-63.667999 7.175000 11.164000
-64.459000 5.399000 11.030000
-63.706001 6.797000 9.580000
-64.103996 6.262000 11.411000
-54.445999 -2.055000 48.535999
-54.191002 -0.168000 47.974998
-54.118999 -1.065000 48.358002
-54.214001 0.945000 47.429001
-53.587002 0.682000 47.869999
-22.313000 9.547000 0.109000
-23.094000 9.447000 -0.538000
-23.471001 8.988000 -0.274000
-23.898001 8.515000 -0.338000
-40.237999 -3.261000 48.710999
-39.791000 -3.794000 48.213001
-40.297001 -4.033000 49.055000
-40.766998 -2.583000 49.004002
-40.023998 -2.740000 48.119999
-39.632999 -3.464000 47.748001
-40.905998 -3.144000 49.445999
-61.893002 -24.232000 25.358999
-62.139000 -23.926001 26.061001
-62.136002 -23.879999 24.556999
-61.581001 -24.605000 24.590000
-61.396000 -24.885000 25.608000
-62.735001 -23.128000 26.082001
-61.866001 -24.247000 27.063999
-61.398998 -24.896999 26.562000
-62.403000 -23.504000 27.065001
-25.125000 18.929001 -10.820000
-24.708000 18.962999 -10.033000
-25.127001 19.577999 -10.417000
-25.587999 19.466999 -11.328000
-25.541000 18.642000 -11.581000
-24.930000 18.229000 -10.734000
-24.903999 -2.487000 13.002000
-24.424000 -2.003000 13.566000
-24.771000 -1.256000 11.180000
-25.459000 -1.217000 16.910000
-25.202999 -1.180000 15.862000
-25.197001 -1.929000 16.542000
-25.451000 -1.944000 17.636000
-25.679001 -1.174000 17.712999
-25.493000 -0.322000 16.174000
-33.992001 -3.257000 31.320000
-33.935001 -4.188000 31.214001
-34.215000 -4.297000 32.130001
-34.042000 -1.967000 31.459000
-33.853001 -2.464000 30.750000
-33.624001 -3.479000 30.302000
-34.273998 -2.964000 32.117001
-34.505001 -3.573000 32.814999
-33.995998 -5.275000 31.663000
-33.516998 -4.325000 30.039000
-33.733002 -4.934000 30.840000
-34.409000 -14.458000 38.810001
-34.685001 -14.069000 39.575001
-34.691002 -13.267000 39.048000
-64.135002 -17.697001 11.661000
-64.217003 -18.030001 12.932000
-63.806999 -18.483999 12.254000
-63.978001 -17.673000 10.515000
-64.357002 -17.021999 10.718000
-63.630001 -18.421000 11.252000
-64.587997 -17.240999 12.554000
-64.616997 -16.799999 11.726000
-64.713997 -17.285999 13.557000
-64.463997 -17.920000 13.905000
-64.059998 -18.697001 13.942000
-44.688000 -15.695000 -3.257000
-23.879000 13.283000 -7.271000
-23.636000 14.179000 -8.104000
-24.323999 13.566000 -8.047000
-24.735001 13.015000 -7.492000
-24.520000 12.680000 -6.779000
-23.142000 13.667000 -6.823000
-23.375999 13.951000 -7.487000
-23.622000 12.968000 -6.485000
-24.622000 12.127000 -5.964000
-24.094999 12.478000 -6.173000
-25.259001 12.001000 -6.209000
-25.417999 12.411000 -6.892000
-60.724998 -25.737000 24.965000
-60.401001 -25.888000 23.742001
-61.019001 -25.240999 24.566999
-60.248001 -26.277000 25.586000
-60.087002 -26.323000 24.473000
-60.866001 -25.575001 25.922001
-60.692001 -25.459999 23.013000
-61.191002 -24.990000 23.716000
-59.789001 -26.445999 23.139999
-59.999001 -26.006001 22.313999
-42.101002 -34.455002 34.924999
-42.738998 -34.546001 35.911999
-41.769001 -34.546001 35.380001
-40.928001 -34.248001 34.685001
-42.605999 -34.377998 34.591000
-42.938000 -34.495998 35.356998
-41.658001 -34.192001 34.051998
-28.927999 -7.852000 15.014000
-29.677000 -9.062000 15.914000
-29.406000 -8.457000 15.260000
-28.488001 -7.194000 14.745000
-28.958000 -7.311000 13.989000
-27.865999 -6.899000 15.207000
-61.319000 -23.611000 18.645000
-62.068001 -1.671000 -6.809000
-62.410000 -2.554000 -6.556000
-61.966000 -2.013000 -7.341000
-61.775002 -0.723000 -6.527000
-62.313000 -1.772000 -6.023000
-61.583000 -1.238000 -7.681000
-61.555000 -0.755000 -7.122000
-47.986000 30.362000 2.982000
-48.250000 30.399000 3.624000
-47.762001 30.103001 2.144000
-28.343000 27.621000 -6.597000
-28.746000 27.638000 -7.210000
-58.606998 -11.935000 -9.666000
-58.673000 -11.321000 -10.221000
-58.966000 -12.338000 -9.034000
-57.881001 -12.442000 -9.553000
-59.445000 -11.626000 -9.329000
-58.952999 -10.730000 -10.552000
-59.661999 -10.961000 -9.762000
-65.921997 -10.097000 33.518002
-65.543999 -9.739000 34.465000
-65.731003 -10.923000 33.841999
-66.070000 -9.300000 33.160999
-65.809998 -8.728000 33.789001
-66.347000 -9.581000 32.330002
-66.010002 -11.557000 33.075001
-45.737999 26.441000 15.739000
-45.582001 27.070000 15.081000
-44.223999 26.923000 14.899000
-44.894001 27.416000 14.610000
-43.653999 26.219999 15.417000
-46.275002 -19.301001 51.498001
-45.785000 -20.014999 51.493999
-47.748001 -19.396999 50.693001
-47.053001 -18.900000 51.233002
-46.134998 -18.299999 51.873001
-45.442001 -19.058001 51.992001
-45.098999 -20.740000 51.583000
-44.987999 -19.993000 51.904999
-61.002998 -21.344999 36.465000
-60.484001 -21.388000 37.330002
-60.186001 -22.187000 36.909000
-61.063999 -20.299000 37.446999
-60.952999 -22.033001 35.733002
-59.502998 -22.348000 37.960999
-59.520000 -23.086000 37.044998
-60.095001 -22.910999 36.136002
-59.820000 -21.465000 38.421001
-60.466999 -20.738001 38.088001
-65.209999 -13.559000 7.319000
-64.819000 -14.128000 6.448000
-65.166000 -13.285000 6.603000
-65.503998 -12.476000 6.949000
-64.703003 -14.733000 6.968000
-65.012001 -14.298000 7.946000
-65.675003 -12.512000 7.744000
-65.382004 -13.425000 8.063000
-38.460999 31.841000 7.987000
-37.396999 32.321999 7.032000
-38.113998 32.248001 7.347000
-27.198999 20.488001 7.210000
-26.497999 20.259001 6.662000
-27.903000 20.719999 7.740000
-28.465000 21.266001 7.793000
-28.468000 21.802999 7.370000
-57.789001 -23.613001 12.869000
-38.394001 -14.644000 47.523998
-38.195999 -14.278000 46.991001
-38.044998 -15.507000 47.277000
-38.659000 -14.791000 48.075001
-38.973999 -13.528000 48.209999
-64.614998 5.524000 18.562000
-64.265999 6.325000 18.417999
-64.487999 5.633000 19.339001
-64.882004 4.729000 18.760000
-64.804001 5.076000 17.778999
-64.500000 5.906000 17.747999
-64.110001 6.818000 17.615999
-63.925999 7.222000 18.539000
-64.178001 6.587000 19.099001
-64.822998 4.681000 19.709999
-66.754997 -0.897000 21.365000
-66.821999 -1.232000 22.506001
-66.917000 -1.288000 20.212999
-61.051998 7.145000 -3.705000
-61.046001 6.469000 -4.009000
-33.040001 18.809999 14.532000
-32.278000 19.035999 13.864000
-31.979000 18.518000 14.321000
-32.238998 18.174999 14.866000
-32.903999 18.263000 15.100000
-33.751999 19.323999 14.162000
-32.973999 19.263000 13.908000
-35.022999 19.253000 14.661000
-34.632000 19.582001 14.005000
-39.737000 32.849998 -0.109000
-39.761002 33.132000 0.732000
-42.285999 32.057999 0.166000
-46.368000 -25.712000 48.199001
-47.216999 -25.844000 47.587002
-46.812000 -25.047001 48.355000
-45.925999 -24.997000 48.930000
-45.368000 -25.941000 48.646000
-47.745998 -25.141001 47.733002
-47.388000 -24.438999 48.411999
-46.411999 -24.250999 49.112999
-58.455002 1.718000 43.384998
-57.683998 2.412000 43.778000
-57.275002 1.642000 44.827999
-56.909000 2.606000 44.419998
-57.299999 0.876000 45.372002
-56.129002 2.754000 45.090000
-56.436001 1.689000 45.532001
-44.311001 17.872999 24.860001
-45.175999 18.158001 25.056000
-43.818001 18.264000 24.009001
-43.580002 17.586000 24.791000
-44.090000 17.344999 25.552999
-44.717999 18.389000 24.392000
-54.166000 26.177000 2.562000
-53.705002 26.903999 2.859000
-53.514000 27.330999 3.709000
-44.835999 -33.575001 38.321999
-45.681000 -33.140999 38.624001
-44.150002 -33.865002 38.346001
-44.036999 -34.113998 37.688999
-44.681999 -33.910999 37.455002
-45.402000 -33.449001 37.868999
-43.956001 -21.688999 51.776001
-43.312000 -21.532000 52.131001
-43.577999 -22.569000 51.563999
-44.090000 -20.565001 52.146000
-44.499001 -22.167000 51.278000
-44.480999 -21.104000 51.752998
-45.292000 -21.475000 51.161999
-67.607002 -11.347000 25.724001
-67.511002 -12.012000 26.525000
-67.338997 -12.816000 26.781000
-67.283997 -13.178000 25.761999
-67.292999 -12.565000 27.659000
-67.530998 -11.231000 26.933001
-67.760002 -10.290000 25.406000
-67.627998 -10.647000 26.238001
-39.931000 -34.629002 40.507000
-40.175999 -34.825001 39.728001
-40.759998 -34.519001 40.306999
-39.502998 -34.917999 39.891998
-40.323002 -34.333000 41.132000
-39.569000 -34.449001 41.304001
-39.151001 -34.743999 40.708000
-51.905998 -17.256001 49.143002
-52.467999 -16.434999 49.070999
-51.381001 -16.341000 49.716000
-52.362000 -17.926001 48.679001
-53.391998 -17.091999 48.325001
-50.993000 -18.136000 49.372002
-50.897999 -17.247000 49.720001
-51.762001 -18.780001 48.709000
-53.042000 -18.458000 48.077999
-57.513000 -7.195000 -13.565000
-56.713001 -7.459000 -13.915000
-55.471001 -7.681000 -14.110000
-50.570000 10.916000 41.103001
-50.403999 10.424000 41.799000
-51.152000 10.179000 41.696999
-51.087002 11.278000 40.363998
-51.542000 10.683000 40.823002
-49.754002 10.953000 41.416000
-49.630001 10.417000 42.126999
-58.893002 -27.732000 27.233999
-59.436001 -27.118000 28.257000
-58.855000 -27.687000 28.181000
-59.096001 -27.514000 26.063999
-59.472000 -27.124001 26.959000
-58.118999 -28.419001 27.339001
-58.529999 -28.052999 26.288000
-58.290001 -28.204000 28.200001
-31.325001 -10.172000 14.782000
-30.672001 -9.406000 14.810000
-31.083000 -9.817000 14.073000
-31.881001 -10.829000 14.268000
-31.757000 -10.830000 15.153000
-31.455000 -10.402000 13.725000
-30.940001 -10.099000 15.586000
-30.639000 -9.265000 13.841000
-30.833000 -9.823000 13.181000
-30.148001 -9.061000 15.140000
-30.253000 -9.630000 15.984000
-56.307999 23.188999 11.903000
-56.717999 22.837999 11.453000
-56.685001 22.510000 12.365000
-56.063000 23.070999 12.597000
-55.717999 23.761999 11.859000
-55.530998 23.642000 12.572000
-56.150002 22.690001 13.277000
-56.557999 22.287001 13.090000
-55.578999 23.277000 13.274000
-37.375999 -16.684999 46.494999
-36.980000 -17.561001 46.188000
-37.583000 -17.775999 47.270000
-37.826000 -16.650000 47.265999
-37.602001 -15.732000 46.543999
-37.026001 -15.954000 45.702000
-36.823002 -16.733999 45.629002
-38.018002 -17.177999 47.936001
-37.167000 -18.254999 46.731998
-37.209999 -19.240999 47.278999
-37.819000 -18.225000 47.941002
-36.352001 -17.509001 45.151001
-36.563000 -18.414000 45.757999
-31.476999 31.232000 -3.213000
-31.346001 31.530001 -2.506000
-32.020000 31.702999 -2.917000
-32.278999 31.482000 -3.657000
-31.806000 30.966999 -4.051000
-30.743000 31.103001 -2.653000
-31.115999 30.797001 -3.695000
-25.893000 25.917999 -3.657000
-25.740999 25.295000 -4.657000
-25.427999 25.052999 -3.648000
-25.660000 25.603001 -2.907000
-30.452000 -11.250000 12.187000
-29.940001 -10.473000 12.066000
-29.653000 -11.208000 11.917000
-30.729000 -10.460000 12.604000
-29.898001 -12.116000 11.951000
-29.360001 -10.141000 11.880000
-29.240000 -11.899000 11.830000
-28.903000 -10.961000 11.671000
-30.166000 -9.684000 12.507000
-43.224998 14.909000 -18.936001
-44.088001 14.480000 -18.759001
-43.554001 13.698000 -19.018999
-43.320000 15.778000 -18.594999
-44.028999 15.472000 -18.430000
-42.759998 14.149000 -19.228001
-42.599998 15.951000 -18.767000
-42.441002 13.431000 -19.375999
-43.765999 12.798000 -19.070000
-43.140999 12.759000 -19.379000
-44.393002 13.196000 -18.826000
-44.764000 13.873000 -18.632999
-44.644001 15.236000 -18.243999
-45.064999 14.497000 -18.306999
-43.675999 -3.368000 -12.566000
-43.516998 -4.344000 -12.880000
-43.067001 -3.449000 -12.915000
-44.259998 -3.010000 -12.197000
-44.328999 -3.919000 -12.256000
-44.974998 -2.845000 -11.903000
-44.751999 -2.227000 -11.996000
-44.956001 -29.156000 23.312000
-45.880001 -29.228001 22.895000
-45.500000 -29.573999 23.565001
-44.188999 -28.797001 23.419001
-44.490002 -28.547001 22.843000
-44.537998 -29.406000 23.933001
-43.744999 -29.132000 24.117001
-32.992001 -16.919001 25.490000
-32.720001 -16.024000 25.976999
-32.131001 -15.294000 25.302999
-31.476999 -14.581000 24.027000
-54.396999 -26.146999 15.817000
-54.987000 -26.298000 16.507999
-54.223999 -26.583000 16.806000
-53.895000 -25.919001 15.157000
-53.639000 -26.243000 15.823000
-30.719000 5.769000 -11.758000
-31.153000 5.177000 -12.262000
-30.207001 5.318000 -12.410000
-31.350000 5.873000 -11.743000
-30.195999 5.969000 -11.454000
-30.917000 4.699000 -12.558000
-31.507000 4.610000 -13.009000
-31.952000 5.107000 -12.436000
-26.548000 19.733999 7.233000
-27.681000 20.223000 8.056000
-27.108000 19.926001 7.712000
-60.015999 8.198000 32.902000
-60.328999 6.846000 34.279999
-60.667000 7.227000 33.007000
-60.548000 7.779000 32.369999
-60.924999 6.577000 33.278000
-61.090000 7.070000 32.136002
-67.635002 -9.868000 18.191999
-67.689003 -10.014000 19.007000
-67.438004 -10.561000 17.861000
-67.601997 -9.459000 17.422001
-32.563999 26.521000 -13.020000
-32.085999 25.725000 -13.483000
-47.779999 -32.494999 37.469002
-46.837002 -32.935001 37.368999
-47.046001 -33.039001 36.699001
-46.924999 -32.748001 37.987999
-48.271999 -32.348000 36.860001
-46.113998 -33.369999 37.043999
-46.241001 -33.493000 36.375000
-46.599998 -33.411999 35.862999
-46.055000 -33.217999 37.650002
-45.716999 10.923000 -18.513000
-45.616001 11.927000 -18.514999
-46.263000 11.555000 -18.266001
-45.986000 10.181000 -18.507999
-45.334999 9.996000 -18.743999
-44.880001 11.708000 -18.820000
-46.512001 10.775000 -18.271000
-46.991001 11.905000 -17.957001
-47.022999 11.107000 -17.934000
-46.466999 12.340000 -18.054001
-45.035000 12.595000 -18.686001
-45.987999 12.813000 -18.188999
-35.793999 12.898000 24.113001
-34.963001 12.319000 24.195999
-35.567001 12.446000 24.752001
-36.153000 12.651000 25.249001
-36.458000 13.299000 24.191999
-35.022999 12.763000 23.447001
-35.758999 13.299000 23.299999
-34.196999 12.132000 23.768999
-35.485001 1.037000 37.445999
-35.435001 0.693000 36.789001
-35.759998 0.201000 37.493999
-35.070000 1.749000 37.015999
-35.200001 1.822000 37.841000
-35.933998 0.436000 38.382000
-35.631001 1.135000 38.150002
-35.056999 1.281000 36.200001
-35.264999 0.415000 35.969002
-35.625000 -0.195000 36.627998
-35.903000 -0.653000 37.254002
-36.047001 -0.370000 38.062000
-32.992001 -22.171000 41.618000
-32.418999 -22.264999 40.780998
-32.580002 -22.999001 41.431999
-33.166000 -22.885000 42.307999
-32.601002 -21.625999 40.626999
-33.046001 -21.224001 41.227001
-33.499001 -21.805000 42.203999
-32.078999 -22.851000 40.519001
-32.077999 -23.597000 40.957001
-32.633999 -23.597000 41.991001
-32.055000 -22.216000 39.886002
-51.145000 28.653000 2.809000
-51.063999 28.959000 3.758000
-51.362000 28.922001 4.605000
-60.138000 -0.523000 42.472000
-59.626999 -1.743000 43.893002
-59.751999 0.739000 42.259998
-59.105000 1.421000 42.733002
-65.459000 -0.982000 3.286000
-65.598000 -0.504000 4.051000
-65.893997 -1.652000 4.049000
-65.528000 -1.805000 3.024000
-65.166000 -0.042000 3.082000
-50.819000 27.827000 9.772000
-50.758999 28.323000 8.921000
-50.189999 28.295000 9.571000
-50.179001 27.979000 10.226000
-49.965000 -22.138000 48.230999
-48.917000 -22.895000 48.438999
-35.306000 23.270000 10.568000
-34.660000 22.656000 10.642000
-21.322001 9.755000 1.005000
-21.882000 9.445000 0.748000
-20.830999 9.977000 1.498000
-37.931999 30.634001 -6.763000
-37.909000 30.930000 -6.091000
-38.647999 30.702000 -5.983000
-36.903000 31.039000 -6.485000
-38.721001 30.302000 -6.556000
-38.356998 30.077000 -7.209000
-37.582001 30.306000 -7.444000
-37.174999 30.709000 -6.955000
-38.636002 30.989000 -5.340000
-39.344002 30.757000 -5.305000
-39.395000 30.326000 -5.911000
-37.915001 31.257000 -5.358000
-37.226002 31.160000 -5.976000
-39.770000 -17.674999 7.656000
-39.522999 -18.202999 6.762000
-40.686001 -17.329000 7.390000
-40.146000 -17.280001 8.342000
-40.293999 -17.781000 6.713000
-39.132999 -18.954000 6.347000
-40.152000 -18.273001 5.836000
-39.570999 -18.968000 5.902000
-54.615002 8.374000 41.195000
-53.300999 8.852000 41.784000
-54.678001 7.695000 41.847000
-41.966999 -33.105999 30.981001
-41.220001 -32.616001 30.818001
-41.695000 -32.563000 30.202000
-42.525002 -33.058998 30.344999
-42.750999 -33.453999 31.087999
-41.897999 -33.495998 31.861000
-41.263000 -33.046001 31.466000
-39.127998 -4.541000 46.132999
-39.230000 -4.274000 46.702000
-39.070000 -3.892000 46.089001
-39.022999 -4.118000 45.541000
-39.238998 -5.117000 46.539001
-39.155998 -5.086000 45.820999
-37.014999 -21.480000 51.681999
-36.723000 -21.104000 50.723999
-36.375999 -21.580000 50.879002
-60.741001 12.000000 23.658001
-61.234001 11.424000 23.247000
-61.012001 12.160000 22.386999
-61.027000 11.285000 24.320999
-60.477001 12.742000 23.014999
-60.200001 12.569000 24.035000
-60.453999 11.834000 24.895000
-59.462002 12.398000 -4.249000
-58.777000 12.456000 -5.312000
-58.567001 13.379000 -5.047000
-59.071999 13.260000 -4.282000
-59.363998 11.881000 -4.712000
-58.236000 -0.435000 45.117001
-58.373001 -1.266000 45.391998
-57.654999 0.102000 45.446999
-57.671001 -0.777000 45.876999
-58.716999 -2.097000 45.316002
-58.152000 -2.057000 45.917000
-59.220001 -2.137000 44.629002
-46.877998 26.407000 15.832000
-46.320000 26.580000 15.654000
-46.389000 25.792000 16.469999
-47.053001 25.806000 16.410000
-47.502998 26.197001 15.910000
-47.103001 26.773001 15.305000
-46.354000 27.091999 15.068000
-47.028999 25.158001 17.042999
-46.366001 24.864000 17.313999
-66.509003 -4.040000 29.650000
-66.094002 -3.462000 30.784000
-66.569000 -4.757000 29.936001
-66.170998 -2.990000 30.134001
-65.703003 -2.535000 31.398001
-65.916000 -2.281000 30.424000
-24.792999 -2.797000 13.869000
-24.587999 -2.776000 14.766000
-24.569000 -2.096000 14.734000
-25.542999 -3.192000 12.987000
-41.056999 -20.318001 52.942001
-40.158001 -19.742001 52.905998
-40.001999 -20.624001 52.896000
-40.844002 -21.065001 52.862000
-41.705002 -20.951000 52.801998
-32.611000 29.662001 6.672000
-32.692001 30.045000 6.178000
-32.120998 29.546000 6.211000
-32.492001 29.177000 7.164000
-33.153999 29.604000 7.211000
-33.386002 30.017000 6.812000
-40.136002 30.948000 -4.318000
-39.157001 31.395000 -4.251000
-39.813000 31.389999 -3.808000
-40.203999 30.405001 -5.062000
-39.504002 31.010000 -4.716000
-40.764000 30.615000 -4.362000
-40.473000 31.304001 -3.510000
-38.553001 31.334999 -4.733000
-19.903999 12.829000 3.844000
-19.947001 13.030000 2.964000
-19.884001 12.296000 3.291000
-19.853001 12.091000 4.184000
-19.976999 13.051000 4.512000
-20.035999 13.553000 3.797000
-19.855000 10.949000 3.889000
-19.849001 11.564000 4.590000
-19.938999 12.223000 5.070000
-19.863001 11.481000 3.483000
-56.974998 21.768999 13.130000
-57.453999 21.282000 12.883000
-57.095001 22.156000 11.917000
-57.284000 22.372999 11.099000
-57.780998 21.782000 10.554000
-67.130997 -10.058000 14.743000
-66.986000 -10.252000 13.777000
-67.170998 -9.298000 14.083000
-67.301003 -9.361000 15.052000
-67.304001 -9.926000 15.688000
-66.942001 -10.376000 12.860000
-67.081001 -9.472000 13.100000
-66.694000 -11.326000 13.108000
-67.210999 -8.602000 13.472000
-67.389000 -8.589000 14.597000
-62.379002 10.722000 4.115000
-62.247002 11.334000 3.158000
-24.474001 6.839000 -4.486000
-33.839001 28.653999 8.679000
-33.216000 28.611000 8.279000
-33.398998 27.757999 8.776000
-34.105999 28.077000 9.010000
-34.618999 28.871000 8.907000
-33.736000 29.097000 8.283000
-35.457001 29.263000 9.101000
-34.845001 28.277000 9.253000
-34.888000 29.430000 8.675000
-34.264000 29.399000 8.326000
-31.379999 -32.084000 45.285000
-30.872999 -32.303001 44.750999
-31.775999 -32.720001 44.764999
-31.686001 -31.733999 45.840000
-31.191999 -31.290001 45.770000
-32.377998 -31.757000 46.153999
-54.674000 10.140000 -12.201000
-54.519001 9.207000 -12.888000
-54.035999 9.962000 -13.056000
-54.536999 11.303000 -11.677000
-55.102001 10.607000 -11.419000
-54.025002 10.941000 -12.492000
-55.442001 9.523000 -11.591000
-55.137001 9.085000 -12.193000
-55.067001 11.732000 -10.824000
-55.598999 11.054000 -10.530000
-55.652000 10.109000 -11.030000
-29.934999 7.390000 25.035999
-30.464001 6.526000 26.009001
-30.531000 7.258000 25.948999
-29.320999 7.656000 24.190001
-30.476000 7.930000 25.480000
-29.917999 8.162000 24.719000
-28.896000 6.725000 23.629000
-41.840000 27.959999 -6.396000
-41.310001 27.872000 -6.865000
-41.179001 28.549999 -6.401000
-42.486000 27.934000 -5.923000
-42.405998 27.476999 -6.483000
-42.167000 27.136999 -6.985000
-41.898998 28.407000 -5.907000
-41.719002 28.980000 -5.509000
-42.301998 28.611000 -5.410000
-41.287998 28.952000 -5.888000
-48.812000 19.268999 -12.813000
-48.169998 19.733999 -12.801000
-48.806999 19.976000 -12.502000
-49.362999 19.702999 -12.004000
-48.113998 19.035999 -13.517000
-49.605999 19.108999 -12.269000
-48.909000 18.632000 -13.195000
-47.493000 20.059999 -12.976000
-48.028999 20.372999 -12.602000
-48.396000 20.259001 -12.118000
-47.573002 19.473000 -13.472000
-23.122999 1.007000 12.171000
-23.115000 1.777000 12.346000
-22.708000 1.692000 11.602000
-23.035000 1.140000 11.420000
-23.420000 0.484000 11.783000
-23.559999 0.296000 12.695000
-65.533997 3.172000 12.481000
-65.811996 2.651000 13.252000
-65.817001 2.597000 12.283000
-65.483002 3.271000 11.537000
-65.500000 3.404000 13.177000
-65.209000 3.901000 11.802000
-65.190002 4.011000 12.554000
-66.035004 1.912000 12.922000
-48.414001 -24.516001 47.701000
-48.154999 -23.775000 48.374001
-47.311001 -23.690001 48.924000
-38.773998 -30.252001 30.617001
-39.292999 -31.000999 30.813000
-35.278000 -33.535000 36.514999
-36.320999 -33.905998 36.487999
-34.750999 -33.653999 36.963001
-34.307999 -33.159000 36.721001
-35.801998 -33.377998 36.161999
-34.817001 -32.877998 36.216000
-35.356998 -32.931000 35.958000
-36.469002 -33.426998 35.888000
-35.966000 -32.867001 35.634998
-36.069000 -29.618000 49.555000
-35.209999 -29.884001 49.222000
-36.138000 -30.160000 49.061001
-35.148998 -29.149000 49.792999
-35.949001 -29.000000 50.048000
-36.932999 -29.649000 49.485001
-35.707001 -30.607000 48.606998
-37.305000 -30.320000 48.804001
-36.826000 -30.753000 48.428001
-34.540001 -29.323000 49.456001
-34.659000 -30.158001 48.816002
-52.007000 9.943000 41.502998
-41.737999 15.390000 26.854000
-28.636999 -0.972000 21.021000
-28.886000 -0.266000 21.500000
-28.069000 -1.626000 20.413000
-28.719000 -1.861000 21.127001
-29.122000 -1.187000 21.673000
-27.308001 -1.380000 19.801001
-60.714001 -17.486000 1.257000
-60.674999 -17.135000 0.378000
-61.317001 -16.749001 1.050000
-60.091000 -17.724001 0.602000
-59.998001 -18.232000 1.513000
-60.151001 -17.318001 -0.242000
-62.007999 -16.033001 1.206000
-40.868000 -16.164000 52.933998
-40.058998 -16.002001 52.410000
-39.752998 -16.789000 52.345001
-40.566002 -16.921000 52.859001
-41.636002 -16.874001 53.172001
-42.235001 -16.101000 53.247002
-41.445999 -15.509000 53.098999
-40.500999 -15.253000 52.605999
-21.250000 10.705000 10.206000
-20.836000 10.842000 9.024000
-20.820999 10.149000 9.261000
-21.417000 9.944000 11.042000
-21.634001 10.756000 11.142000
-21.601000 11.331000 10.592000
-21.188000 11.322000 9.664000
-21.108000 10.036000 10.118000
-20.628000 11.307000 8.164000
-20.528999 10.574000 8.258000
-20.884001 11.615000 8.779000
-20.594999 9.467000 8.824000
-20.872000 9.351000 9.788000
-20.445999 9.877000 8.141000
-35.352001 -12.468000 40.703999
-35.584999 -11.397000 40.726002
-35.216000 -11.892000 39.987999
-35.796001 -11.616000 41.368999
-35.025002 -12.963000 39.851002
-35.284000 -13.190000 40.789001
-35.785999 -12.364000 41.676998
-54.933998 -4.013000 -15.641000
-55.812000 -3.460000 -15.288000
-56.814999 -3.798000 -14.644000
-60.675999 13.434000 20.500999
-60.841999 12.840000 21.315001
-60.611000 13.791000 19.711000
-61.278999 12.109000 21.294001
-60.311001 13.764000 21.195999
-60.070000 14.510000 20.062000
-35.176998 -23.327000 50.665001
-35.111000 -23.952999 50.942001
-34.609001 -24.096001 50.324001
-34.910000 -23.291000 50.084999
-35.563999 -22.777000 50.673000
-34.778000 -24.671000 50.852001
-53.282001 -27.438000 40.161999
-47.237999 29.348000 11.490000
-47.505001 28.566000 12.618000
-39.520000 31.799999 -3.153000
-39.022999 31.740000 -3.627000
-38.337002 31.684000 -4.040000
-35.157001 -10.014000 38.726002
-35.026001 -10.772000 38.765999
-34.854000 -12.256000 39.080002
-35.146999 -11.259000 39.402000
-36.169998 11.468000 29.438000
-35.567001 11.041000 29.334999
-35.838001 10.979000 30.372999
-36.490002 11.383000 30.601999
-36.792000 11.835000 29.715000
-36.542999 11.906000 28.767000
-35.748001 11.396000 28.514000
-34.896999 10.674000 28.787001
-35.077000 10.539000 29.812000
-35.672001 10.519000 31.490999
-36.326000 10.980000 31.610001
-35.230000 10.384000 30.736000
-29.288000 -13.850000 11.877000
-29.497000 -12.960000 11.872000
-28.759001 -13.298000 11.850000
-29.882000 -13.903000 11.777000
-28.469999 -12.589000 11.250000
-28.962000 -12.583000 11.751000
-30.167000 -13.128000 11.912000
-65.577003 -1.485000 30.690001
-65.872002 -1.623000 29.653999
-65.487999 -0.616000 30.128000
-65.241997 -0.635000 31.004999
-65.300003 -1.444000 31.584000
-65.563004 -0.102000 29.087000
-65.203003 0.125000 30.100000
-65.764000 -0.874000 29.375999
-52.841999 25.129000 13.627000
-54.294998 24.497000 12.781000
-53.355000 25.052000 12.975000
-52.240002 25.122999 14.272000
-31.104000 5.734000 27.320999
-30.742001 5.973000 26.725000
-31.114000 4.911000 27.299999
-30.872999 6.663000 26.773001
-31.284000 6.258000 27.731001
-31.396000 5.368000 28.118000
-34.584000 -23.605000 45.166000
-34.951000 -22.737000 45.006001
-34.280998 -23.187000 44.244999
-33.914001 -24.110001 44.591000
-34.199001 -24.205999 45.429001
-34.882999 -23.660999 46.120998
-35.203999 -22.959000 45.800999
-35.477001 -23.048000 46.658001
-34.370998 -24.325001 46.152000
-35.275002 -23.465000 47.175999
-34.688000 -24.042000 46.744999
-67.845001 -7.346000 19.343000
-67.748001 -6.613000 18.837000
-67.815002 -6.813000 20.118000
-67.835999 -8.363000 19.191000
-67.893997 -8.004000 20.110001
-67.925003 -7.777000 20.993000
-67.799004 -6.199000 20.882999
-67.787003 -6.000000 19.575001
-67.749001 -6.058000 18.028000
-55.674000 8.363000 40.042999
-56.632999 8.403000 38.736000
-55.721001 9.113000 39.007999
-54.907001 9.073000 40.035000
-55.483002 7.649000 41.115002
-56.264000 7.584000 40.250999
-57.691002 7.855000 37.935001
-57.058998 8.843000 37.521999
-56.049000 9.561000 37.903000
-54.844002 9.817000 39.122002
-53.990002 10.474000 39.051998
-53.723999 10.100000 39.896999
-53.584000 11.161000 38.502998
-52.932999 10.905000 39.514000
-54.450001 11.088000 37.703999
-55.083000 10.349000 37.997002
-23.302000 5.669000 0.986000
-23.056000 5.006000 0.811000
-23.195000 5.355000 1.565000
-23.332001 5.659000 0.314000
-23.084000 4.932000 2.080000
-23.379999 6.143000 2.074000
-23.230000 5.516000 2.451000
-23.091000 5.143000 -0.167000
-36.216000 -1.155000 38.221001
-36.335999 -0.682000 38.840000
-36.337002 -1.622000 38.674000
-35.999001 -1.424000 37.507999
-36.116001 -2.182000 37.986000
-35.710999 -1.238000 36.578999
-35.917999 -2.147000 37.098000
-39.613998 -23.368999 20.549999
-38.990002 -22.708000 20.566000
-40.116001 -23.861000 20.398001
-39.938999 -24.148001 21.233000
-39.222000 -23.455000 21.226000
-60.608002 -15.785000 -2.738000
-20.297001 11.641000 1.385000
-20.700001 11.210000 0.521000
-36.761002 27.850000 -10.932000
-37.303001 26.955999 -11.421000
-36.669998 27.292000 -11.526000
-36.319000 28.507000 -10.562000
-37.002998 28.343000 -10.289000
-36.001999 27.691999 -11.541000
-37.422001 27.546000 -10.735000
-35.909000 28.225000 -11.041000
-37.750000 26.240000 -11.692000
-37.951000 26.778000 -10.972000
-45.431999 -3.375000 -11.702000
-45.856998 -2.837000 -11.682000
-29.139000 26.573999 5.073000
-29.805000 27.576000 5.213000
-29.195999 27.327999 4.608000
-28.539000 26.502001 4.432000
-28.642000 25.687000 5.056000
-29.320000 26.069000 5.711000
-29.686001 26.784000 5.701000
-28.103001 25.635000 4.419000
-27.957001 26.240999 3.777000
-57.542000 22.683001 8.503000
-57.284000 23.104000 7.786000
-56.911999 23.524000 8.511000
-57.138000 23.121000 9.039000
-57.431000 22.646000 9.505000
-57.950001 22.237000 7.994000
-57.590000 22.719999 7.373000
-57.949001 22.101000 8.964000
-56.924999 23.587000 7.657000
-56.558998 24.145000 8.018000
-51.625999 11.357000 -14.816000
-51.740002 12.332000 -14.232000
-52.181999 11.519000 -14.194000
-52.096001 10.711000 -14.713000
-51.181999 11.805000 -15.004000
-47.568001 -29.954000 43.556000
-47.323002 -29.525999 44.270000
-44.251999 -27.778000 21.823000
-47.334000 29.934000 10.415000
-47.297001 29.679001 10.947000
-39.499001 1.585000 -13.042000
-39.762001 2.249000 -12.850000
-40.443001 1.822000 -12.838000
-39.472000 0.138000 -13.625000
-39.157001 0.901000 -13.334000
-64.942001 -13.456000 5.767000
-64.290001 -15.061000 5.977000
-64.512001 -14.203000 5.475000
-60.508999 -11.890000 -7.932000
-59.587002 -12.553000 -8.308000
-65.003998 -15.200000 33.922001
-64.490997 -16.384001 34.206001
-64.975998 -16.045000 33.396000
-64.583000 -15.223000 34.769001
-65.100998 -14.145000 34.209000
-65.343002 -15.311000 32.937000
-65.424004 -14.255000 33.423000
-64.722000 -16.927999 33.234001
-64.144997 -16.038000 35.187000
-63.928001 -17.080000 34.750000
-65.168999 -16.438000 32.369999
-51.603001 -29.723000 22.784000
-51.658001 -30.266001 23.502001
-52.145000 -29.164000 22.108000
-50.765999 -30.165001 23.205000
-51.916000 -30.757999 24.218000
-50.770000 -30.743999 23.993000
-52.943001 -29.275000 22.437000
-34.316002 9.154000 31.962000
-35.000000 9.644000 32.456001
-34.858002 9.829000 31.517000
-34.056000 8.533000 32.696999
-34.674000 9.058000 33.127998
-34.537998 9.859000 30.455999
-35.671001 10.214000 32.455002
-35.289001 9.552000 33.411999
-25.038000 -1.277000 10.309000
-24.929001 -0.945000 9.594000
-24.719000 -1.223000 8.547000
-66.846001 -14.092000 19.811001
-67.016998 -13.110000 18.507999
-30.108999 -7.082000 24.118000
-30.822001 -6.719000 25.136000
-30.443001 -6.334000 24.447001
-30.287001 -7.960000 24.524000
-30.643000 -7.424000 24.957001
-29.834999 -6.305000 23.618999
-30.959000 -5.841000 25.191000
-30.379000 -5.473000 24.195999
-31.299000 -6.517000 25.843000
-51.680000 -28.639999 40.376999
-50.895000 -29.268000 40.402000
-52.435001 -27.923000 40.556000
-51.483002 -28.297001 41.241001
-50.014999 -29.872999 40.655998
-50.744999 -29.759001 39.686001
-50.448002 -29.097000 41.224998
-31.195999 -11.885000 25.565001
-30.799999 -11.148000 24.938000
-31.301001 -11.170000 26.047001
-31.657000 -11.941000 26.520000
-30.920000 -10.516000 25.430000
-30.549000 -9.864000 24.809000
-22.878000 15.275000 -6.993000
-23.094999 14.662000 -7.448000
-22.770000 14.482000 -6.618000
-23.249001 15.391000 -7.943000
-22.541000 15.127000 -6.112000
-22.649000 13.817000 -6.166000
-22.408001 14.443000 -5.693000
-56.754002 -2.848000 -14.705000
-57.573002 -2.928000 -13.966000
-56.919998 -2.016000 -14.503000
-55.854000 -2.357000 -15.274000
-57.539001 -3.951000 -14.045000
-57.647999 -4.574000 46.910000
-57.527000 -3.499000 46.866001
-57.042000 -4.051000 47.388000
-58.118999 -5.183000 46.498001
-58.224998 -3.897000 46.320000
-57.561001 -5.626000 47.105999
-57.094002 -5.164000 47.473999
-56.521999 -4.729000 47.853001
-56.327000 -5.552000 48.015999
-34.643002 29.816000 8.074000
-35.290001 29.849001 8.531000
-34.007999 29.872999 7.514000
-34.675999 30.261999 7.501000
-54.518002 -30.145000 32.292999
-55.287998 -29.639000 32.432999
-54.501999 -29.922001 33.161999
-54.612999 -30.355000 31.445000
-55.303001 -29.848000 31.504999
-53.738998 -30.469000 33.060001
-53.810001 -30.676001 32.016998
-56.028000 -29.291000 31.792000
-56.147999 -28.987000 32.536999
-55.349998 -29.357000 33.193001
-53.840000 -30.073000 33.959000
-54.570000 -29.601000 34.046001
-38.020000 23.275000 12.151000
-37.644001 22.743000 12.252000
-38.294998 22.558001 12.796000
-38.548000 23.910999 12.207000
-37.810001 23.916000 11.699000
-38.627998 23.143000 12.680000
-37.244999 23.358999 11.617000
-39.106998 23.011999 13.161000
-37.944000 21.957001 12.997000
-37.424000 22.086000 12.552000
-37.105999 22.663000 11.986000
-33.634998 -31.945999 46.654999
-34.492001 30.287001 -8.118000
-34.063000 30.436001 -7.260000
-34.747002 30.625000 -7.484000
-33.872002 30.141001 -8.051000
-35.285999 30.382000 -8.094000
-34.930000 30.031000 -8.762000
-38.303001 -16.141001 47.972000
-38.608002 -15.587000 48.438000
-38.458000 -16.795000 48.680000
-38.933998 -14.607000 48.668999
-50.659000 -27.679001 18.629000
-49.823002 -27.604000 18.291000
-50.770000 -27.365000 17.912001
-50.195999 -27.938000 19.170000
-32.034000 -3.450000 26.702999
-31.584000 -4.015000 25.934999
-31.757999 -4.763000 26.341999
-32.297001 -4.030000 27.250999
-32.429001 -2.907000 27.440001
-31.194000 -4.915000 25.414000
-31.150000 -3.385000 25.176001
-31.011999 -4.121000 25.017000
-33.292000 -28.532000 48.833000
-33.326000 -27.726999 49.202000
-33.008999 -28.386999 48.306999
-53.354000 19.672001 22.489000
-54.047001 19.072001 22.680000
-54.089001 19.816000 21.555000
-52.966000 19.214001 23.388000
-52.716999 20.361000 21.966000
-53.368000 20.129999 21.754999
-55.098999 19.506001 20.908001
-54.611000 20.174000 20.412001
-53.853001 20.424000 20.871000
-54.640999 19.219999 21.798000
-53.575001 18.736000 23.551001
-54.688000 18.573000 22.712999
-43.643002 -33.903000 38.869999
-44.036999 -34.272999 37.056999
-54.292999 25.202999 11.288000
-53.676998 26.485001 2.006000
-53.452000 26.237000 1.247000
-53.034000 26.417999 0.861000
-33.481998 22.964001 9.887000
-33.785999 22.458000 10.371000
-34.541000 23.118000 10.208000
-32.700001 23.434999 9.325000
-32.898998 22.892000 9.660000
-33.917999 23.382000 9.820000
-34.030998 22.052000 10.874000
-32.237000 22.705000 9.478000
-51.539001 17.733000 26.768999
-50.937000 18.238001 26.343000
-52.020000 17.961000 26.028999
-52.346001 17.398001 26.716999
-30.315001 19.600000 11.537000
-29.579000 18.841000 11.786000
-30.117001 18.988001 12.159000
-28.471001 17.315001 -15.495000
-29.127001 17.607000 -16.002001
-29.207001 16.863001 -16.122000
-28.479000 18.132000 -15.386000
-28.938999 16.327000 -15.744000
-28.202999 16.656000 -15.157000
-27.823999 17.573000 -14.764000
-32.165001 -14.751000 25.882000
-32.644001 -15.315000 26.507000
-32.535999 -14.581000 26.940001
-65.994003 0.500000 24.870001
-66.051003 0.747000 23.879999
-66.289001 0.206000 22.799999
-66.192001 0.789000 22.121000
-66.001999 1.073000 22.915001
-66.427002 0.016000 21.722000
-66.544998 -0.543000 22.250000
-58.728001 -5.941000 -13.004000
-58.021000 -5.699000 -13.553000
-57.963001 -4.842000 -13.720000
-59.438999 -5.454000 -12.465000
-58.330002 -6.885000 -13.172000
-59.344002 -6.372000 -12.467000
-67.086998 -13.363000 27.761999
-67.214996 -13.548000 26.853001
-66.816002 -14.019000 28.670000
-66.976997 -14.058000 27.750000
-67.066002 -12.860000 28.634001
-44.522999 -0.200000 -12.566000
-43.916000 0.486000 -12.732000
-44.078999 0.988000 -13.096000
-45.355000 -0.088000 -12.843000
-43.632999 1.730000 -13.388000
-37.944000 -17.590000 16.819000
-37.144001 -17.042000 16.893999
-37.492001 -16.833000 16.122999
-37.148998 -17.643999 17.757999
-37.865002 -18.059000 17.577999
-38.516998 -17.629000 16.221001
-38.573002 -18.441999 17.377001
-38.958000 -18.332001 16.731001
-55.049999 1.918000 -14.957000
-55.824001 1.631000 -14.302000
-55.535999 0.929000 -14.829000
-54.812000 1.205000 -15.424000
-54.182999 1.918000 -15.679000
-56.116001 2.313000 -13.811000
-56.471001 0.888000 -13.969000
-56.615002 1.635000 -13.525000
-61.419998 -10.558000 41.754002
-61.986000 -10.950000 40.839001
-61.841999 -9.946000 41.143002
-61.376999 -9.608000 41.914001
-60.933998 -10.570000 42.480999
-60.935001 -11.643000 42.285999
-61.451000 -11.465000 41.528000
-61.717999 -8.833000 41.466999
-61.220001 -8.545000 42.243999
-60.882000 -9.470000 42.674000
-55.213001 17.524000 -7.111000
-55.749001 16.962000 -6.692000
-55.130001 17.164000 -7.530000
-55.219002 17.948999 -6.766000
-54.741001 17.853001 -7.636000
-54.591999 18.483000 -7.402000
-53.272999 -28.221001 38.936001
-53.896999 -27.687000 38.884998
-52.793999 -28.195999 39.615002
-47.798000 -22.108000 10.052000
-48.449001 -22.712999 9.786000
-47.999001 -21.691000 9.459000
-47.220001 -21.309999 10.387000
-49.171001 -22.806000 9.239000
-49.205002 -23.365999 10.007000
-48.716999 -22.104000 8.937000
-48.380001 -23.266001 10.560000
-65.018997 -8.008000 35.546001
-65.474998 -8.453000 34.576000
-65.462997 -7.507000 34.598999
-65.164001 -7.183000 35.219002
-64.549004 -8.021000 36.605999
-64.823997 -9.054000 36.131001
-65.207001 -8.852000 35.251999
-65.735001 2.378000 18.674000
-65.852997 2.260000 17.514000
-65.535004 3.074000 17.927000
-65.429001 3.324000 18.884001
-65.579002 2.771000 19.652000
-66.092003 1.361000 19.445000
-66.022003 1.636000 18.445999
-65.853996 1.941000 20.093000
-57.521000 20.816999 13.665000
-57.896999 20.523001 13.154000
-55.820000 21.875000 15.710000
-56.105999 21.159000 16.455000
-55.334999 22.035000 16.326000
-54.842999 -14.096000 -7.407000
-54.314999 -13.180000 -7.625000
-55.042999 -13.561000 -8.192000
-54.869999 -14.983000 -6.652000
-54.285999 -13.907000 -6.827000
-55.487999 -15.792000 -6.178000
-47.908001 26.573000 15.229000
-47.671001 25.497000 16.635000
-48.023998 25.975000 15.930000
-37.028999 -6.971000 41.618000
-36.706001 -6.637000 40.861000
-36.506001 -7.548000 40.872002
-36.785000 -7.703000 41.506001
-37.326000 -7.309000 42.351002
-21.546000 12.062000 9.870000
-21.837999 11.935000 10.517000
-21.615000 12.702000 9.429000
-22.253000 12.084000 11.089000
-25.684000 -9.036000 10.720000
-26.556000 -10.095000 10.716000
-26.191999 -9.319000 10.194000
-58.609001 -19.907000 3.476000
-58.691002 -20.174000 4.477000
-57.819000 -20.361000 3.723000
-58.769001 -19.379999 2.261000
-59.424000 -19.226000 2.978000
-58.097000 -19.872999 2.648000
-59.334999 -19.669001 3.897000
-59.727001 -19.711000 4.827000
-59.987000 -19.174999 3.838000
-65.484001 3.230000 10.732000
-65.112000 4.012000 10.832000
-64.864998 4.623000 11.497000
-64.764000 4.720000 10.190000
-35.720001 -7.497000 39.022999
-35.368999 -8.736000 38.588001
-35.828999 -8.047000 39.549000
-35.609001 -7.071000 38.330002
-35.368999 -8.039000 38.346001
-35.967999 -6.485000 38.962002
-36.097000 -7.036000 39.681999
-40.006001 14.870000 26.087000
-39.444000 14.427000 26.346001
-24.173000 16.667000 8.313000
-24.028000 17.049999 7.754000
-58.713001 18.323000 -0.465000
-57.855999 19.242001 -1.019000
-58.166000 19.406000 -0.112000
-58.401001 17.997999 -1.534000
-57.745998 18.840000 -1.754000
-59.021000 18.665001 0.790000
-59.396000 18.025999 0.664000
-59.724998 17.327000 0.519000
-59.285999 17.298000 -0.539000
-59.776001 18.149000 2.025000
-60.030998 17.423000 1.646000
-44.532001 16.569000 27.431999
-34.069000 -11.293000 34.396000
-34.146999 -11.804000 35.146999
-34.307999 -11.071000 35.640999
-34.245998 -10.485000 34.881001
-33.839001 -11.646000 33.521999
-34.012001 -12.340000 34.397999
-34.028999 -10.409000 33.882999
-50.087002 27.323999 -0.989000
-49.772999 27.160000 -1.611000
-49.346001 27.648001 -1.215000
-49.542999 27.850000 -0.621000
-50.390999 27.500999 -0.356000
-50.555000 26.791000 -1.440000
-50.993999 26.961000 -0.673000
-50.077999 26.702000 -2.164000
-50.847000 26.306999 -2.124000
-51.254002 26.393000 -1.421000
-35.084999 -0.930000 34.668999
-35.062000 -1.772000 34.508999
-35.376999 -1.186000 35.514999
-35.403000 -0.456000 35.820000
-34.768002 -1.470000 33.597000
-34.851002 -0.101000 34.369999
-34.717999 -0.663000 33.838001
-35.070000 -0.034000 35.153000
-35.550999 -1.924000 36.056999
-35.319000 -2.066000 35.278000
-35.160000 -2.811000 34.660999
-34.880001 -2.419000 33.914001
-66.413002 -2.130000 5.588000
-66.609001 -1.935000 6.452000
-66.254997 -2.583000 4.786000
-66.123001 -1.609000 4.885000
-25.382999 10.215000 18.614000
-26.003000 10.673000 18.913000
-25.945999 11.259000 17.941000
-25.648001 9.907000 19.367001
-25.382999 10.778000 17.854000
-24.988001 10.059000 18.098000
-54.403000 19.791000 -6.765000
-54.553001 19.504999 -7.187000
-54.757999 19.936001 -6.016000
-49.810001 25.610001 15.523000
-49.275002 26.115000 15.080000
-49.137001 25.771999 15.800000
-49.528000 25.285999 16.291000
-50.182999 25.083000 16.215000
-50.547001 25.408001 15.451000
-49.938000 26.002001 14.747000
-21.475000 5.115000 9.828000
-33.912998 3.091000 35.166000
-34.183998 2.470000 34.950001
-33.780998 3.558000 35.728001
-34.330002 2.418000 35.712002
-34.191002 2.905000 36.285999
-34.243999 1.971000 34.402000
-34.604000 1.726000 35.320000
-51.497002 -14.677000 50.090000
-51.173000 -15.434000 50.084000
-51.995998 -15.523000 49.582001
-50.466000 -14.785000 50.615002
-50.844002 -13.871000 50.576000
-51.769001 -13.795000 50.105999
-52.311001 -14.374000 49.696999
-50.169998 -15.719000 50.525002
-50.365002 -16.584000 50.223000
-52.904999 -15.560000 49.039001
-52.745998 -14.842000 49.339001
-39.519001 29.823000 -6.535000
-40.085999 29.987000 -5.770000
-40.182999 29.371000 -6.361000
-39.963001 29.048000 -6.916000
-39.070000 29.681999 -7.033000
-40.604000 28.525999 -6.839000
-40.728001 29.225000 -6.040000
-54.581001 6.228000 43.372002
-55.270000 6.213000 42.793999
-53.554001 6.621000 43.801998
-63.191002 -15.655000 3.474000
-62.828999 -15.515000 2.441000
-63.550999 -15.561000 4.328000
-50.387001 -32.653000 28.341999
-50.358002 -32.708000 29.313000
-49.778000 -32.895000 28.528999
-50.297001 -32.599998 27.405001
-51.168999 -32.354000 29.933001
-62.231998 -10.062000 -7.002000
-62.525002 -9.326000 -6.995000
-63.362000 -9.162000 -4.966000
-63.397999 -9.702000 -4.360000
-33.348999 -17.164000 37.944000
-33.328999 -17.502001 38.500999
-33.694000 -16.242001 37.935001
-33.411999 -16.809999 37.421001
-33.103001 -17.489000 37.113998
-32.967999 -17.896999 37.617001
-33.386002 -17.853001 39.146000
-33.025002 -18.171000 38.425999
-64.845001 -17.540001 14.860000
-65.065002 -16.695000 13.986000
-65.264000 -16.674000 14.926000
-64.415001 -18.319000 14.835000
-65.139000 -17.233999 15.795000
-64.526001 -18.482000 15.809000
-38.000999 29.377001 -8.529000
-37.771000 29.059999 -8.917000
-37.459999 29.527000 -8.715000
-38.429001 28.768000 -8.698000
-37.705002 29.754000 -8.169000
-38.493000 29.177000 -8.254000
-38.205002 29.739000 -7.759000
-37.983002 28.450001 -9.350000
-37.292000 29.025000 -9.334000
-51.263000 -4.908000 -12.579000
-50.431000 -4.532000 -12.140000
-50.882000 -4.190000 -13.126000
-50.987999 -5.348000 -11.689000
-51.917000 -5.595000 -12.480000
-28.568001 12.350000 -8.742000
-28.451000 11.903000 -8.069000
-27.820000 12.472000 -8.412000
-29.341000 12.029000 -8.893000
-29.235001 11.640000 -8.442000
-28.775000 12.625000 -9.262000
-27.737000 12.964000 -9.187000
-52.827999 -10.270000 -7.949000
-53.370998 -10.547000 -8.554000
-53.178001 -10.874000 -7.806000
-52.630001 -10.817000 -7.059000
-52.321999 -10.135000 -7.402000
-51.846001 -10.172000 -6.840000
-48.599998 -18.965000 50.393002
-47.938000 -18.312000 50.958000
-49.666000 -19.509001 49.629002
-49.632999 -18.712999 49.945999
-48.950001 -18.106001 50.499001
-33.324001 -29.313999 48.514999
-32.816002 -28.993999 47.983002
-33.064999 -29.733999 47.999001
-33.910000 -30.034000 48.511002
-33.730000 -29.124001 49.077000
-34.948002 32.144001 -3.903000
-34.061001 32.195000 -3.689000
-33.719002 32.486000 -3.075000
-35.203999 32.403999 -3.326000
-60.438000 16.733999 10.206000
-36.255001 -17.343000 10.120000
-35.661999 -16.735001 10.863000
-35.430000 -17.389000 10.225000
-35.957001 -17.872000 9.568000
-36.688999 -16.999001 10.505000
-40.456001 -29.565001 27.863001
-40.154999 -28.902000 27.580000
-41.340000 -29.968000 27.240999
-64.957001 -19.573000 24.951000
-64.355003 -20.573000 24.837999
-64.574997 -20.195000 23.858000
-65.359001 -18.737000 25.031000
-65.098999 -19.101000 26.132999
-65.096001 -19.325001 23.752001
-64.667000 -19.969999 25.715000
-64.225998 -20.773001 25.903999
-64.225998 -20.733999 22.875000
-64.707001 -19.892000 22.693001
-45.053001 16.028999 29.683001
-45.615002 16.396999 29.339001
-45.268002 16.534000 28.500999
-30.797001 13.922000 -14.931000
-31.143999 14.124000 -15.917000
-31.444000 13.620000 -15.195000
-30.764000 13.613000 -14.026000
-30.000000 14.159000 -14.456000
-30.254000 14.389000 -15.361000
-31.715000 13.211000 -14.386000
-31.944000 13.981000 -16.657000
-32.030998 13.466000 -15.595000
-30.506001 14.797000 -16.243000
-31.354000 14.481000 -16.745001
-56.321999 -1.330000 -14.813000
-57.049999 -1.187000 -14.157000
-57.709000 -2.004000 -13.712000
-25.931000 -1.633000 18.493999
-26.246000 -2.227000 18.851999
-26.608999 -1.458000 19.127001
-26.035999 -0.838000 18.243999
-26.433001 -0.582000 18.846001
-26.886000 -2.231000 19.516001
-58.956001 -22.694000 12.032000
-58.126999 -22.902000 11.475000
-58.738998 -22.462000 11.069000
-59.445000 -22.112000 11.217000
-59.755001 -22.264999 11.989000
-59.535999 -22.672001 12.860000
-58.630001 -23.122000 12.776000
-57.879002 -23.226999 12.122000
-58.034000 -22.645000 10.616000
-58.233002 -22.261999 9.913000
-59.111000 -22.024000 10.333000
-61.452000 -14.557000 40.605000
-61.474998 -13.328000 41.020000
-61.042000 -12.640000 41.879002
-33.549000 -18.259001 24.919001
-33.694000 -18.671000 23.761999
-33.866001 -18.888000 24.712000
-33.960999 -18.461000 25.837000
-33.348000 -17.653000 25.378000
-33.174000 -17.879000 24.158001
-33.564999 -18.287001 22.924999
-34.006001 -19.169001 23.118999
-34.393002 -19.195999 25.854000
-57.224998 14.120000 -6.549000
-58.022999 13.260000 -5.900000
-58.488998 11.958000 -6.016000
-62.896000 -6.442000 -7.397000
-63.070000 -6.754000 -6.778000
-62.457001 -8.204000 -7.794000
-62.625000 -7.146000 -7.819000
-62.236000 -8.984000 -7.692000
-26.113001 -3.693000 9.963000
-24.360001 6.252000 14.872000
-23.872999 5.666000 14.127000
-24.434999 5.306000 14.476000
-24.798000 5.560000 15.171000
-24.834000 6.467000 15.772000
-36.573002 -14.503000 44.344002
-36.667999 -13.496000 44.053001
-36.172001 -14.305000 43.424000
-36.792999 -15.396000 45.082001
-37.087002 -14.418000 45.172001
-37.187000 -13.377000 44.888000
-35.991001 -15.154000 43.542999
-36.417000 -15.469000 44.408001
-37.345001 -15.114000 45.882999
-36.361000 -16.483000 44.773998
-55.869999 5.888000 -12.747000
-55.272999 5.985000 -13.393000
-55.618999 6.727000 -12.856000
-56.422001 5.946000 -12.030000
-56.289001 5.181000 -12.597000
-56.110001 6.696000 -12.194000
-55.604000 5.128000 -13.340000
-55.019001 6.670000 -13.495000
-55.039001 7.467000 -13.093000
-55.733002 7.440000 -12.282000
-54.960999 5.571000 -14.017000
-54.435001 6.243000 -14.277000
-54.689999 -22.521000 7.679000
-54.648998 -22.961000 8.714000
-56.887001 15.177000 -6.312000
-56.162998 15.632000 -7.034000
