1230
62371.277344 83342.921875 40582.593750
62048.410156 83220.687500 40443.312500
61315.199219 41993.273438 48910.203125
61700.031250 42011.031250 49110.539062
62527.582031 83141.976562 39673.734375
62645.500000 83337.773438 40321.035156
62793.996094 83034.945312 39094.476562
62442.964844 83031.984375 39293.632812
62813.343750 83131.539062 39459.019531
62851.562500 83233.101562 39811.257812
62577.855469 83237.945312 40007.273438
63134.898438 83015.929688 38888.394531
63525.851562 83019.171875 38823.859375
63448.300781 83100.742188 39129.738281
63126.179687 83117.562500 39272.816406
63437.421875 83195.437500 39459.113281
63182.621094 83336.648438 39994.816406
63139.207031 83218.070312 39624.070312
63417.949219 83284.570312 39751.425781
58061.359375 60882.839844 69709.343750
60258.699219 42075.523438 48981.511719
60247.222656 42136.906250 49258.246094
60502.042969 42099.699219 49154.738281
63732.023438 83082.632812 39034.226562
63747.320313 83164.460938 39311.585938
82986.734375 56260.246094 70641.367188
63747.648438 83282.257812 39676.246094
63876.472656 83016.070312 38797.929688
64236.343750 82997.867188 38764.093750
64069.652344 83103.210938 39108.824219
82805.742188 55989.046875 70718.335938
64055.300781 83218.687500 39472.226562
64469.636719 83064.218750 39030.449219
64373.800781 83169.765625 39348.851562
64326.148438 83277.726562 39649.453125
64617.867188 83230.265625 39561.347656
64600.421875 82960.679688 38704.000000
64826.031250 83019.320312 38967.941406
64713.460938 83124.601562 39274.953125
64946.308594 83184.875000 39513.570312
64821.738281 83300.539062 39784.984375
64953.800781 82916.054688 38652.320312
65164.917969 82966.867188 38910.160156
65061.953125 83071.976562 39215.062500
65319.839844 83123.117188 39465.324219
65169.687500 83253.265625 39765.363281
65289.679687 82869.984375 38621.429688
65450.906250 82913.492188 38852.074219
65419.148437 83002.117188 39134.542969
65754.179688 83034.101562 39386.582031
65589.828125 83186.554688 39752.878906
65984.921875 83175.328125 39902.300781
66117.734375 82910.382812 39167.960938
66178.429688 83024.046875 39555.570312
66390.039062 83102.179688 39888.816406
66233.070312 83216.843750 40137.363281
66547.562500 83186.164062 40205.011719
66608.781250 82979.414062 39608.039062
66757.835938 83061.265625 39925.761719
66293.101562 83312.296875 40416.632812
66679.242188 83307.703125 40611.445312
66483.968750 82892.992188 39275.492188
66961.304688 82955.906250 39659.644531
67100.023438 83030.640625 39951.535156
66912.726562 83144.710938 40247.531250
67109.234375 83209.726562 40551.144531
57283.597656 61444.378906 69723.757812
67005.773438 83321.625000 40855.156250
67273.640625 83097.906250 40240.222656
67466.695312 83154.851562 40528.132812
67324.890625 83253.867188 40821.519531
67202.531250 83346.828125 41056.335938
67482.187500 83313.968750 41117.312500
67840.328125 82978.632812 39925.328125
67618.523438 83065.195312 40231.539062
67787.562500 83116.945312 40506.535156
67696.476562 83202.007812 40822.519531
82381.656250 55892.578125 70822.632812
67822.429688 83274.421875 41183.500000
68175.851562 83012.382812 40142.507812
67908.835938 83052.281250 40262.312500
68117.492188 83090.976562 40514.929688
67920.578125 83145.007812 40688.773438
68082.296875 83175.632812 40914.843750
68114.382812 83246.500000 41263.882812
67955.437500 83335.867188 41504.046875
68486.046875 82973.765625 40007.550781
68472.992188 83034.718750 40353.335938
68463.820312 83101.210938 40743.011719
68443.835938 83180.179688 41182.078125
68274.710938 83280.062500 41519.035156
68558.007812 83223.921875 41509.148438
68474.132812 83306.843750 41789.816406
68726.304688 82992.070312 40187.773438
68847.039062 83029.828125 40523.644531
68810.164062 83093.882812 40964.511719
68807.179688 83150.734375 41346.218750
69370.031250 82933.210938 40087.175781
69252.601562 82979.554688 40441.296875
69019.796875 82967.890625 40156.355469
69167.710938 83026.414062 40806.039062
69130.046875 83073.750000 41177.710938
68795.523438 83218.132812 41698.570312
69111.085938 83126.984375 41541.238281
68731.828125 83328.734375 42088.585938
69097.515625 83198.226562 41914.710938
69119.554688 83294.007812 42337.933594
69458.500000 83004.632812 41025.738281
69431.304688 83044.515625 41377.269531
69751.296875 82969.828125 41212.125000
69412.335938 83095.796875 41734.898438
69730.851562 83008.210938 41569.175781
69419.531250 83157.609375 42091.957031
69690.187500 83062.281250 41915.660156
69496.820312 83211.945312 42427.136719
69703.234375 83112.664062 42221.585938
69899.484375 83038.531250 42073.785156
69956.406250 83071.460938 42331.718750
70203.195312 83023.070312 42424.730469
61734.234375 83413.257812 41623.812500
61994.070312 83437.000000 41369.398438
61418.980469 83368.726562 41890.949219
61785.671875 83538.242188 41986.101562
62269.179688 83400.625000 40904.253906
62204.101562 83451.484375 41164.750000
62319.054688 83566.984375 41425.316406
62100.671875 83583.757812 41740.898438
62083.562500 83695.351562 42110.292969
62318.597656 83737.234375 41957.617188
62360.656250 83844.562500 42220.968750
61815.117188 83673.398438 42366.175781
62734.406250 83447.210938 40616.843750
62533.839844 83457.476562 40827.402344
62516.417969 83541.250000 41120.921875
62764.964844 83824.546875 41706.855469
62456.753906 83709.070312 41711.800781
62645.601562 83686.984375 41434.949219
62858.035156 83318.148438 40103.753906
63021.683594 83431.335938 40366.007812
63047.785156 83549.375000 40684.929688
62798.750000 83556.335938 40898.058594
62866.730469 83674.546875 41179.468750
63111.109375 83664.929688 40951.683594
62956.585937 83803.828125 41454.808594
63395.417969 83469.476562 40285.367188
63275.785156 83540.578125 40524.167969
63347.785156 83642.289062 40742.367188
63429.480469 83766.195312 40997.085938
63572.027344 83384.117188 39999.058594
63741.253906 83510.687500 40274.941406
63663.296875 83719.812500 40774.914062
63554.234375 83592.398438 40526.074219
64071.507812 83318.601562 39751.949219
63924.222656 83409.117188 39994.687500
64094.164062 83543.257812 40284.542969
63994.855469 83785.429688 40810.144531
63880.429688 83645.343750 40541.710938
64214.125000 83690.523438 40575.726562
64544.718750 83327.039062 39800.152344
64302.210938 83410.343750 39977.875000
64485.644531 83575.593750 40338.761719
64669.218750 83421.984375 40037.183594
64868.187500 83530.546875 40298.636719
64761.792969 83683.531250 40574.066406
65086.265625 83627.437500 40539.804688
65011.894531 83386.781250 40032.968750
65213.441406 83477.539062 40286.082031
64986.128906 83781.062500 40806.445312
65276.457031 83708.554688 40758.871094
65683.132812 83286.570312 40049.636719
65364.738281 83334.187500 40029.570312
65257.742188 83867.578125 41063.031250
65625.101562 83684.023438 40869.765625
65419.621094 83568.109375 40544.429688
65559.765625 83414.046875 40287.320312
65766.203125 83493.085938 40551.652344
82040.953125 55991.253906 70887.570312
65938.500000 83328.835938 40271.183594
66000.500000 83549.015625 40797.535156
66011.046875 83712.281250 41142.183594
66296.148438 83434.265625 40714.312500
66058.851562 83421.117188 40551.074219
66238.265625 83556.734375 40957.406250
66504.843750 83473.851562 40937.105469
67335.929688 41927.792969 47902.281250
67000.617188 41806.101562 47624.769531
66955.320312 41915.656250 47957.046875
81767.187500 56107.609375 70939.117188
66373.890625 83622.171875 41186.828125
66679.546875 83529.757812 41187.449219
66564.281250 83702.671875 41487.433594
66909.523438 83562.750000 41421.835938
66765.320312 83408.679688 40947.804688
66966.023438 83430.125000 41137.050781
66859.453125 83711.828125 41717.976562
67146.484375 83590.195312 41654.757812
67085.562500 83719.515625 41897.410156
81550.046875 55951.898437 70992.070312
67244.328125 83442.843750 41353.734375
67395.851562 83506.187500 41629.445312
67174.554688 83821.664062 42171.996094
67381.750000 83633.445312 41916.863281
67510.101562 83757.156250 42272.566406
67592.476562 83502.164062 41755.250000
67613.218750 83395.781250 41468.105469
67766.914062 83567.625000 42027.507812
68111.140625 83407.351562 41841.605469
67806.546875 83436.695312 41723.394531
67844.804688 83717.007812 42426.628906
68130.664062 83543.140625 42229.699219
68382.773438 83410.632812 42065.937500
68476.554688 83490.390625 42366.933594
63030.808594 83916.125000 41690.027344
62910.875000 83965.617188 41950.824219
63185.890625 83790.492188 41222.371094
63251.906250 83919.937500 41504.890625
63084.136719 84099.656250 42148.699219
63269.917969 84051.101562 41840.609375
63401.375000 84210.414062 42162.878906
63763.652344 83858.382812 41045.937500
63510.148438 83901.953125 41277.554688
63564.500000 84038.453125 41579.687500
64112.000000 83928.726562 41088.460938
64221.332031 84055.007812 41338.523438
64133.839844 84158.468750 41597.234375
63876.304688 84017.078125 41362.664062
64489.882812 83728.492188 40634.863281
64327.441406 83831.656250 40848.710938
64492.296875 83979.976562 41147.933594
64655.613281 83830.882812 40846.773438
64869.082031 83935.500000 41084.304688
64757.703125 84063.992188 41326.757812
65051.406250 84038.445312 41329.023438
65627.968750 83881.234375 41259.054688
65341.835938 84006.296875 41364.996094
66241.617188 83768.093750 41402.878906
65951.031250 83924.164062 41531.312500
66586.421875 83858.679688 41827.546875
66576.664062 84013.617188 42138.843750
66358.539062 83987.640625 41929.609375
66908.406250 84026.234375 42402.988281
66864.468750 83857.960938 42026.199219
63643.128906 84177.093750 41883.390625
63763.617187 84321.593750 42191.265625
63844.527344 84137.960938 41659.828125
64015.812500 84270.976562 41916.250000
64095.957031 84410.859375 42244.214844
64502.000000 84149.335938 41512.671875
64359.648438 84276.296875 41821.074219
64282.000000 84368.562500 42060.722656
64401.136719 84465.648438 42288.183594
64691.410156 84278.835938 41800.980469
64549.867188 84382.796875 42051.984375
64716.585938 84481.882812 42301.523438
64869.140625 84165.718750 41560.851562
65015.507813 84265.554688 41810.925781
64864.878906 84378.171875 42049.929688
65080.234375 84466.710938 42313.191406
65195.699219 84138.757812 41584.296875
65554.914062 84073.632812 41607.148438
65328.296875 84234.828125 41844.859375
65146.761719 84345.476562 42032.234375
65448.011719 84346.500000 42158.539062
66863.312500 41693.992188 47337.738281
67201.875000 41696.417969 47264.476562
65813.625000 84096.304688 41795.847656
65602.617188 84199.695312 41897.210938
66088.726562 84043.437500 41861.726562
66246.000000 84134.125000 42158.894531
76897.601562 28823.890625 30403.576172
77363.093750 28756.251953 30925.251953
77443.101562 28805.914062 30581.619141
77067.453125 28726.859375 31055.914062
77308.710938 28741.974609 31236.095703
77058.695312 28721.261719 31329.316406
77252.562500 28747.035156 31566.474609
56167.617188 61634.558594 69526.039062
56002.855469 61844.804688 69556.156250
55701.136719 61888.273438 69502.828125
55868.511719 61572.515625 69439.851562
76864.968750 28735.986328 32309.636719
77007.179688 28763.246094 32596.550781
77205.460938 28780.773438 32330.179687
77333.171875 28816.066406 32668.224609
77480.281250 28826.085938 32401.648438
76834.632812 28744.125000 32849.031250
77092.515625 28781.705078 32837.230469
77285.250000 28817.927734 33002.722656
54985.183594 61164.871094 69110.625000
54819.085937 61398.261719 69148.906250
77137.828125 28793.134766 34117.859375
77319.757812 28830.378906 34418.007812
77433.882812 28851.753906 34146.207031
77309.273438 28833.056641 34701.632812
77552.828125 28884.121094 34638.750000
81241.906250 55974.750000 71052.054688
77452.960938 28874.126953 34948.519531
77210.375000 28840.179688 35178.078125
77322.671875 28888.376953 35444.183594
77468.148438 28895.388672 35232.710938
77797.406250 28845.193359 30512.000000
77540.789062 28916.869141 30202.187500
77689.265625 28788.697266 30845.115234
77590.781250 28766.986328 31142.277344
77516.031250 28765.759766 31399.134766
77621.828125 28797.615234 31691.863281
77793.914062 28797.177734 31361.564453
77624.742188 28864.453125 32598.271484
77747.281250 28869.169922 32343.265625
77626.000000 28881.869141 32915.710938
77930.382812 28932.246094 32665.687500
80984.656250 56177.042969 71101.789062
77178.929688 28801.470703 33286.761719
77481.906250 28860.187500 33240.652344
77598.523438 28887.962891 33732.796875
77380.476562 28840.201172 33884.421875
77656.976562 28901.771484 33994.093750
78059.156250 28834.546875 30823.648437
77851.132812 28795.306641 31081.041016
78096.640625 28833.964844 31222.378906
78064.671875 28858.035156 31627.142578
78251.242188 28930.285156 31990.201172
77876.085938 28862.677734 32006.828125
54623.734375 61156.550781 69018.304688
77230.078125 28965.539062 30048.419922
77432.304688 29087.912109 29856.562500
77181.250000 28854.458984 30329.478516
77197.437500 28898.476563 35669.453125
77466.460938 28956.128906 35687.062500
76979.585938 28954.917969 36074.054688
77263.789062 28973.398437 35949.289062
77456.429688 29069.222656 36158.187500
77601.734375 29038.910156 35933.550781
77173.828125 29066.023438 36308.902344
77261.968750 29223.642578 36674.453125
77512.343750 29167.703125 36410.816406
77182.484375 29332.503906 36945.988281
77441.585938 29373.486328 36929.324219
77282.132812 29297.564453 29599.914062
77795.867188 29066.945312 29926.113281
78025.953125 29001.953125 34706.222656
77988.164062 28987.136719 34425.554688
77801.914062 28941.220703 34590.164062
77771.132812 28942.330078 34844.859375
80892.945312 55890.148438 71113.398438
77623.632812 28952.634766 35435.648438
77726.609375 28949.640625 35150.863281
77728.203125 29137.328125 36181.417969
77907.320312 29113.486328 35935.292969
77834.773438 29252.035156 36444.886719
77620.601562 29297.933594 36682.828125
77655.203125 29286.519531 29623.736328
78152.046875 29030.373047 30058.027344
78097.601562 29275.714844 29674.289062
77888.000000 28930.666016 30215.996094
78132.015625 28899.980469 30418.912109
77965.414062 28963.580078 33028.855469
78023.234375 28990.330078 33390.312500
78266.320312 29046.943359 33131.500000
77687.789062 28908.494141 33480.445312
77903.664062 28962.904297 33762.636719
77942.875000 28973.906250 34120.785156
78068.742188 29029.101562 35029.390625
77968.820312 29036.259766 35406.582031
77771.210938 29025.937500 35684.335938
78044.515625 29222.312500 36198.785156
78242.671875 29198.392578 35906.687500
79966.843750 56125.976562 71239.828125
78708.671875 28927.660156 30859.138672
78724.046875 28962.519531 30499.621094
78415.101562 28897.011719 30650.427734
78396.992188 28875.744141 31030.351562
78392.882812 28892.236328 31399.250000
78084.593750 28933.255859 32317.570312
78276.328125 29007.513672 32597.244141
79603.187500 55989.457031 71254.320312
78184.882812 29008.511719 32858.820312
78482.929688 29088.693359 32867.078125
66672.078125 41738.796875 47506.027344
78200.757812 29042.919922 33670.609375
78201.343750 29044.509766 33952.246094
78430.828125 29111.919922 34098.457031
78495.414062 29130.566406 33792.804688
78221.585938 29050.619141 34253.625000
78253.804688 29061.746094 34541.093750
78263.882812 29070.302734 34796.984375
78511.375000 29140.904297 34684.195312
78265.632812 29102.013672 35274.320312
78562.117188 29198.832031 35351.765625
78448.312500 29135.246094 35017.558594
78035.484375 29096.474609 35700.285156
78270.570312 29139.923828 35561.214844
78536.281250 29245.169922 35719.195312
78450.492188 28978.136719 30279.070312
78528.132812 29159.580078 29898.382812
78740.312500 55965.367188 71270.679688
79034.289062 56002.312500 71273.093750
78957.507812 55661.109375 71239.617188
78732.007812 29040.865234 30191.677734
78688.937500 28966.015625 31575.828125
78696.148438 28933.503906 31219.767578
67596.250000 41763.417969 47361.824219
67536.015625 41642.734375 47024.261719
78426.281250 29007.767578 32301.242187
78549.382812 29073.808594 32569.166016
78752.046875 29095.742188 32357.857422
78372.976562 29088.955078 33445.355469
78685.000000 29183.251953 33483.585938
78562.562500 29135.423828 33191.222656
78730.335938 29203.939453 34110.898438
78495.820312 29132.421875 34367.597656
78674.515625 29208.562500 35111.277344
78779.070312 29229.226563 34872.457031
79016.750000 28990.189453 30699.175781
79359.664062 29069.078125 30538.519531
79010.804688 29045.355469 30336.574219
78625.453125 55693.601562 71242.671875
78997.484375 28980.927734 31053.230469
79296.203125 29033.626953 30908.062500
54323.882813 61303.921875 68993.867188
78990.796875 29005.583984 31396.755859
79286.867188 29083.302734 31549.798828
79275.296875 29044.275391 31231.707031
78648.664062 29012.271484 31972.916016
78998.156250 29054.828125 31753.582031
79351.039062 29155.791016 31915.140625
79019.226562 29120.794922 32120.125000
79301.835938 29212.849609 32264.464844
78810.132812 29163.175781 32719.669922
79060.117188 29190.980469 32464.980469
79310.109375 29263.933594 32529.925781
78725.992188 29170.863281 32995.359375
78932.593750 29228.193359 32979.566406
79633.609375 29160.007812 30280.251953
79288.015625 29156.138672 30132.222656
79549.765625 29076.511719 30812.546875
79575.296875 29088.830078 31106.128906
79798.750000 29115.531250 30897.945313
79499.640625 29100.441406 31377.623047
79596.132812 29153.492188 31635.658203
79755.046875 29144.025391 31372.857422
79533.898438 29239.085938 32155.175781
79530.796875 29289.451172 32411.669922
79771.265625 29300.046875 32250.759766
79906.992188 29165.638672 30410.675781
79716.484375 29113.242187 30606.185547
80048.343750 29154.568359 30696.160156
80055.812500 29157.714844 31022.246094
79845.882812 29134.572266 31142.275391
80040.617188 29180.429687 31315.826172
79961.382812 29217.867188 31668.308594
79707.664062 29227.226562 31943.757812
80395.164062 29202.539062 30647.552734
80183.867188 29206.208984 30383.818359
80284.039062 29182.964844 30902.044922
80300.804688 29240.126953 31511.845703
80316.398438 29204.001953 31178.628906
61852.121094 41549.457031 46527.093750
61817.617188 41581.218750 46857.121094
62180.718750 41528.484375 46618.957031
80293.960938 29294.974609 31852.275391
80604.929688 29229.580078 30959.189453
80606.390625 29260.962891 31350.419922
77466.648438 29533.130859 29398.429688
77259.601562 29474.294922 37182.671875
77470.726562 29628.095703 37376.375000
77583.007812 29512.242188 37144.339844
78375.710938 55906.617188 71262.890625
76940.960938 29660.097656 37552.679688
77188.851562 29626.054688 37451.167969
77290.578125 29811.757813 29236.490234
77863.078125 29563.308594 29380.761719
77926.468750 29372.705078 36699.742188
77743.250000 29430.505859 36920.140625
77715.273438 29633.316406 37307.476562
77857.585938 29561.111328 37127.507812
77611.265625 29770.339844 29243.757812
78204.781250 29531.667969 29408.902344
77095.289062 55931.582031 71265.679688
77559.164062 55944.542969 71264.085938
77369.585938 55603.582031 71224.804688
77973.562500 55953.695312 71265.468750
78017.007812 29492.423828 36920.796875
78161.367188 29443.457031 36735.554688
78119.726562 29621.650391 37124.945312
78127.992188 29741.250000 29257.720703
78478.328125 29419.935547 29538.177734
78455.617188 29723.398437 29285.363281
78165.664062 29348.783203 36488.386719
78272.789062 29550.880859 36911.644531
78740.898438 29569.945312 29414.384766
78834.492188 29353.363281 29658.326172
78935.398438 29159.873047 29986.796875
77003.757812 55515.121094 71215.492188
76657.296875 55752.554688 71248.914062
78828.492188 29310.445313 35569.445312
78910.414062 29552.449219 36498.214844
79088.859375 29550.822266 36325.566406
78711.617188 29573.134766 36700.347656
78801.390625 29713.730469 36958.363281
78995.492188 29671.314453 36748.105469
78409.226562 29476.121094 36659.160156
79105.226562 29593.591797 29442.250000
79206.179688 29322.429688 29774.111328
79165.765625 29267.720703 32802.480469
79123.343750 29293.308594 33163.683594
79436.640625 29359.847656 33050.765625
61080.023437 41644.687500 46596.597656
61373.941406 41626.687500 46831.625000
61363.394531 41603.988281 46440.562500
79186.515625 29649.515625 36543.332031
79489.601562 29493.521484 29589.849609
79572.773438 29288.265625 29921.550781
79493.453125 29331.966797 32710.480469
79001.382812 29276.134766 33476.464844
79375.390625 29373.873047 33457.070312
79724.898438 29441.560547 33266.933594
79484.953125 29426.275391 34181.218750
79725.343750 29483.560547 34047.976562
79487.406250 29418.876953 33853.214844
79274.476562 29369.837891 34300.355469
79150.710938 29335.732422 34547.394531
79450.539062 29421.894531 34471.656250
79121.093750 29336.689453 34887.726562
79371.781250 29405.546875 34723.003906
79438.437500 29438.394531 34992.992188
79476.257812 29482.521484 35362.250000
79746.632812 29532.167969 35090.847656
79132.046875 29389.623047 35463.410156
79042.007812 29404.591797 35744.250000
79320.023438 29486.046875 35715.101562
94067.507812 55738.824219 66243.328125
54058.531250 61241.328125 68896.312500
79135.015625 29492.910156 36036.218750
80167.148438 29659.851562 29508.718750
79753.914062 29688.183594 29422.908203
79859.867188 29447.316406 29719.078125
79952.820312 29261.707031 30093.265625
80058.773438 29371.156250 32384.996094
80020.171875 29296.214844 32047.523438
79776.359375 29361.798828 32565.787109
80064.476562 29436.955078 32733.050781
79753.203125 29409.578125 32903.828125
80043.171875 29484.939453 33094.316406
79715.718750 29463.865234 33623.203125
79980.757812 29546.712891 34199.671875
79954.156250 29526.125000 33846.667969
79720.898438 29490.923828 34360.761719
79991.226562 29562.156250 34540.171875
79824.273438 29585.636719 35413.800781
80114.351562 29672.291016 35491.800781
80042.320312 29616.302734 35188.140625
79640.210938 29574.904297 35683.550781
79488.375000 29590.117188 35990.218750
79810.281250 29673.416016 35942.273438
80221.062500 29407.056641 29846.619141
80291.093750 29283.494141 30125.640625
93617.671875 55678.136719 66536.132812
93834.578125 55720.074219 66387.062500
80366.054688 29512.859375 32919.792969
80406.093750 29449.335938 32527.070312
80323.117188 29552.199219 33270.488281
80677.867188 29589.070312 33139.218750
80526.968750 29607.607422 33512.269531
80042.406250 29520.947266 33471.042969
80260.335938 29577.914063 33703.464844
80520.132812 29632.863281 33864.488281
80243.250000 29593.191406 34030.582031
80253.132812 29611.726562 34361.882812
80307.906250 29641.015625 34715.257812
80503.015625 29666.572266 34476.953125
61664.035156 41566.679688 46308.894531
61612.964844 41577.191406 46593.042969
80793.007812 29568.404297 29699.140625
80468.257812 29532.816406 29690.851562
80586.718750 29380.111328 29984.339844
80323.296875 29365.216797 32180.427734
80824.382812 29642.335938 33418.250000
80802.429688 29664.390625 33702.296875
80510.398438 29651.544922 34193.394531
80799.039062 29688.091797 34034.351562
80947.109375 29435.503906 29960.636719
81265.843750 29410.548828 30157.111328
81206.000000 29603.201172 29731.044922
80738.492188 29251.070313 30602.306641
81119.789062 29307.009766 30563.234375
80865.093750 29321.822266 30264.312500
80921.226562 29266.835938 30839.841797
81163.015625 29302.464844 30890.962891
80963.851562 29294.330078 31175.822266
81194.250000 29368.091797 31481.880859
81374.945312 29354.289062 31126.867188
80574.250000 29303.230469 31690.863281
80867.054688 29326.345703 31563.472656
81062.937500 29400.341797 31813.861328
80791.218750 29360.681641 31842.333984
80688.750000 29534.080078 32758.542969
80974.031250 29596.160156 32895.941406
80942.656250 29547.927734 32631.302734
81036.460938 29646.617188 33213.179688
81076.695312 29685.201172 33530.714844
81373.882812 29699.654297 33326.183594
81598.929688 29556.341797 29917.193359
81648.421875 29430.859375 30262.492188
81432.687500 29357.779297 30454.603516
81676.328125 29383.744141 30573.537109
81414.750000 29337.507812 30748.792969
81687.187500 29389.517578 30902.417969
81478.640625 29410.980469 31439.464844
81708.960938 29429.000000 31249.406250
81416.312500 29452.871094 31760.109375
80870.679688 29431.339844 32123.648437
81236.523438 29484.371094 32094.619141
81076.046875 29519.833984 32394.392578
81051.695312 38196.875000 62059.019531
80809.640625 38064.921875 62044.410156
80814.101562 38314.191406 62186.746094
81281.257812 29647.154297 32980.273438
81499.914062 29642.917969 32742.058594
81203.710938 29590.222656 32671.718750
81980.523438 29551.523437 30116.658203
81888.515625 29443.148438 30415.070312
81941.687500 29434.132812 30695.798828
82155.335938 29508.552734 30468.232422
81982.851562 29462.105469 31033.966797
82027.023438 29524.023438 31416.109375
81705.570312 29477.041016 31577.126953
81932.351562 29557.751953 31756.556641
81560.882812 29536.957031 32070.796875
81688.914062 29518.736328 31838.855469
81846.156250 29587.982422 32030.810547
81751.984375 29616.246094 32301.994141
81786.710938 29700.167969 32806.937500
81977.375000 29702.230469 32527.892578
81692.898438 29646.583984 32555.218750
82222.773438 29507.156250 30804.199219
82475.984375 29589.490234 30895.632813
82450.320312 29586.128906 30597.083984
82295.242188 29555.271484 31133.484375
82386.125000 29632.474609 31464.007812
82657.968750 29688.867188 31165.587891
82187.117188 29609.671875 31685.082031
93388.757812 56090.062500 66294.203125
93399.625000 55826.445313 66526.492188
82157.539062 29658.685547 31988.859375
81994.718750 29658.271484 32232.177734
77124.789062 30137.003906 29111.085938
53833.921875 61417.792969 68898.500000
77202.484375 29891.113281 37807.199219
77259.093750 30075.765625 38002.417969
77518.812500 29964.562500 37821.210938
80877.742188 44064.964844 26249.285156
80937.234375 43954.324219 26469.291016
81213.015625 44026.164062 26333.925781
77556.031250 30096.875000 29105.587891
53771.558594 61155.296875 68771.867188
53507.703125 61416.812500 68796.421875
77704.539062 29786.693359 37539.464844
77367.468750 29767.894531 37610.367188
93146.953125 55960.023438 66538.750000
77883.789062 29892.675781 29179.421875
78233.265625 30039.509766 29121.208984
76978.531250 60759.355469 71021.789062
76665.640625 60959.476562 71033.515625
77947.171875 29701.291016 37331.757812
78041.710938 29864.951172 37542.933594
78163.539062 30050.267578 37744.382812
78333.898438 29929.808594 37531.531250
76642.234375 60620.667969 71159.671875
78379.734375 29683.136719 37119.210938
78223.773438 29767.066406 37330.171875
78446.757812 30104.562500 37719.816406
78610.117188 29993.626953 37516.640625
92926.328125 55812.339844 66772.625000
78821.890625 29825.074219 29242.843750
78576.265625 30002.154297 29139.402344
93034.320312 55592.167969 66892.585938
78532.898438 29617.408203 36910.957031
78613.882812 29742.628906 37115.921875
92838.726562 55606.359375 66973.953125
78502.937500 29830.343750 37315.968750
79197.382812 29964.560547 29190.046875
78846.085938 30149.140625 29090.591797
79100.828125 29819.652344 36996.925781
79254.937500 29760.000000 36773.949219
92335.828125 55921.945312 66944.898438
92473.531250 55756.449219 67023.265625
92258.359375 55757.132812 67111.023438
79431.664062 29725.837891 29353.291016
79602.851562 29959.255859 29210.919922
79515.648438 29773.244141 36591.839844
79866.914062 29842.820312 36484.867188
79670.468750 29710.664062 36252.378906
79966.695312 29940.826172 29251.478516
79987.859375 29787.251953 36190.781250
80095.031250 29977.451172 36654.031250
80120.304688 29892.171875 36406.453125
80328.617188 29976.792969 29259.261719
80320.117188 29689.720703 35259.121094
79910.882812 29648.312500 35676.246094
80422.031250 29761.787109 35569.246094
80154.851562 29751.425781 35854.332031
80297.218750 29879.433594 36193.921875
80530.296875 29867.789062 35916.656250
80569.742188 29751.919922 29457.650391
80690.882812 29716.404297 34726.097656
80773.968750 29706.873047 34373.539062
80490.140625 29700.455078 35008.968750
80779.921875 29761.888672 35048.328125
80233.359375 29644.941406 35008.617188
80612.539062 29759.812500 35296.023438
80795.046875 29858.140625 35600.699219
80870.601562 29813.132812 35290.437500
80874.218750 29978.406250 35984.992188
80348.039062 29995.798828 36495.433594
80633.093750 30009.585937 36289.925781
81234.484375 30026.730469 29269.091797
80976.242188 30099.361328 29206.564453
80967.375000 29829.244141 29423.527344
81079.726562 29713.316406 33850.917969
81034.234375 29764.509766 34585.175781
81133.085938 29748.962891 34208.335938
80966.234375 29777.367188 34861.726562
92531.281250 55900.992188 66882.429688
81058.710938 29823.902344 35102.648438
92030.445312 55751.238281 67207.757812
92206.882812 55577.300781 67268.617188
91986.500000 55563.312500 67371.484375
81113.531250 29889.015625 35401.792969
67676.968750 41341.980469 45293.328125
67407.750000 41328.585938 45550.906250
67736.781250 41348.261719 45578.761719
81554.539062 29751.326172 29582.265625
81486.656250 29946.810547 29356.667969
81291.281250 29814.582031 29457.730469
81344.007812 29730.333984 33674.808594
81581.507812 29776.343750 33839.343750
81617.906250 29753.398438 33546.328125
75131.273438 39773.906250 63442.011719
75337.898438 39923.292969 63581.027344
75347.945312 39671.394531 63375.191406
81378.398438 29811.125000 34490.648438
67817.492188 39722.691406 58716.808594
68078.281250 39485.644531 58503.109375
67814.101562 39685.882812 58406.753906
81277.507812 29832.583984 34840.636719
81353.757812 29898.113281 35169.644531
81551.148438 29904.125000 34966.472656
81825.265625 29985.320312 29394.060547
81905.750000 29723.087891 29730.722656
67656.132812 39791.617188 58142.601562
67429.250000 39984.898438 58282.187500
67590.453125 39877.226562 58500.656250
81888.734375 29787.429688 33415.003906
81668.070312 29735.244141 33290.433594
76287.937500 39807.023438 63551.414062
76476.875000 39920.968750 63653.703125
76518.726562 39736.519531 63501.710938
81793.992188 29824.968750 33976.492188
81846.242188 29807.785156 33717.496094
81547.179688 29805.083984 34163.753906
81673.492188 29855.544922 34437.035156
81928.070312 29886.789062 34241.250000
81606.609375 29876.925781 34705.585938
81897.625000 29922.988281 34584.734375
81660.773438 29975.796875 35202.570312
82234.554688 29919.244141 29580.404297
82400.968750 29644.525391 30214.828125
82214.554688 29709.214844 29889.554687
82233.765625 29738.005859 32316.378906
82280.281250 29798.410156 32623.789062
81868.609375 29752.183594 33107.355469
82076.734375 29771.181641 32863.191406
82130.093750 29862.898438 33598.597656
82193.421875 29844.363281 33209.960938
82056.421875 29876.066406 33915.093750
82312.257812 29980.988281 34135.179688
75908.546875 39020.800781 62858.796875
75857.882812 39259.859375 63060.839844
76089.523438 39188.121094 63012.144531
82192.453125 29988.328125 34472.488281
81855.359375 29968.402344 34916.699219
82112.820312 30005.945312 34737.898438
91721.265625 55344.734375 67645.468750
91489.062500 55527.527344 67604.406250
91758.726562 55542.335938 67482.492188
82516.484375 29823.767578 29875.865234
82605.546875 30046.398438 29600.238281
82750.242188 29793.970703 30169.181641
82675.546875 29691.824219 30445.687500
82719.234375 29687.605469 30761.650391
82439.296875 29707.406250 31790.384766
82701.953125 29764.367188 31569.166016
82469.554688 29778.548828 32109.523438
82504.398438 29844.472656 32420.246094
82333.164062 29850.164062 32897.066406
82533.273438 29899.001953 32720.517578
82570.234375 29959.984375 33065.410156
82476.218750 29969.855469 33507.050781
82310.757812 29938.218750 33810.113281
82565.828125 30044.273438 33880.320312
82835.523438 29961.871094 29881.775391
82998.390625 29922.068359 30142.146484
83003.210938 29846.822266 30500.158203
83238.445312 29948.263672 30786.671875
83348.492188 30045.341797 30508.404297
82994.828125 29823.916016 30952.884766
83302.570312 29999.556641 31134.734375
82990.109375 29857.742188 31346.783203
82989.179688 29914.919922 31709.542969
83254.304688 30019.224609 31519.425781
82725.296875 29836.656250 31910.236328
82747.875000 29959.306641 32527.058594
82740.117188 29904.064453 32227.066406
91108.453125 55826.554688 67506.757812
77333.601562 30456.181641 29011.255859
77278.859375 30289.742188 38205.300781
77324.570312 30519.265625 38392.105469
77552.171875 30394.664062 38248.308594
75794.890625 60934.707031 71270.882812
77820.421875 30504.228516 38283.972656
77776.500000 30288.673828 38105.335938
77734.507812 30464.539062 28996.322266
77912.656250 30187.351562 29064.861328
78053.562500 30398.476563 38135.812500
77982.640625 30178.408203 37942.585938
78300.085938 30271.740234 37948.253906
78333.437500 30516.736328 38169.691406
77858.765625 29986.419922 37759.183594
76358.320312 60828.027344 71162.820312
78155.476562 30462.449219 28993.310547
78521.523438 30297.589844 29034.496094
78484.820312 30605.574219 28960.101562
78589.695312 30271.992188 37865.796875
78672.726562 30142.457031 37691.148438
78852.070312 30090.789062 37555.242188
78864.375000 30280.630859 37783.003906
78837.718750 30533.480469 28979.960938
79116.554688 30296.203125 29044.992187
79441.507812 30264.773438 29064.742188
79252.421875 30588.570313 28970.982422
79813.140625 30239.468750 29086.398437
79502.632812 30421.242188 37711.121094
79322.921875 30205.388672 37512.609375
79181.296875 30384.857422 37786.148438
79056.609375 30199.095703 37617.328125
90520.671875 55664.761719 67887.257812
90733.492188 55732.476563 67743.742188
90765.625000 55536.832031 67900.203125
79651.242188 30577.056641 28977.591797
80127.671875 30198.917969 29116.769531
80074.796875 30541.033203 28992.123047
80687.812500 30044.703125 29235.626953
80447.562500 30336.318359 29072.839844
80078.171875 30101.085938 36938.378906
80351.210938 30265.503906 37071.667969
80339.718750 30113.226562 36781.949219
80284.734375 30402.927734 37331.152344
80057.562500 30243.619141 37210.648438
79986.101562 30406.019531 37485.996094
90924.015625 55620.085938 67765.742188
80962.703125 30103.265625 36284.191406
80818.476562 30148.195312 36506.187500
80590.906250 30127.068359 36626.441406
80653.507812 30395.998047 37101.960938
80980.773438 30481.533203 37035.386719
80834.937500 30284.902344 36782.210938
80828.062500 30330.361328 29079.705078
75569.906250 61091.707031 71272.187500
75505.695312 60829.359375 71377.351562
81064.195312 30238.003906 36526.632812
81205.304688 30188.271484 36309.750000
81523.781250 30233.517578 29165.599609
81153.882812 30303.462891 29100.457031
80559.031250 72187.437500 55149.597656
80795.921875 71968.507812 55197.851562
80584.828125 72020.320312 55436.425781
81390.804688 30331.568359 36481.019531
81428.140625 30206.197266 36173.226562
81177.531250 30087.250000 36063.375000
81170.140625 30399.785156 36769.953125
81918.757812 30307.810547 29159.781250
81771.921875 30062.152344 35433.125000
81960.117188 30065.310547 35229.113281
81463.304688 29999.660156 35503.464844
81742.304688 30137.732422 35704.734375
90730.117188 55914.277344 67572.742188
81445.351562 30101.810547 35869.007812
81700.734375 30236.060547 36018.523438
81895.406250 30383.736328 36201.304688
82029.429688 30296.910156 35873.820312
81635.718750 30323.199219 36280.308594
82138.312500 30139.835938 29316.263672
82297.062500 30418.291016 29173.027344
82184.718750 30082.750000 34995.882812
82417.906250 30112.267578 34720.273438
82253.109375 30184.376953 35302.789062
82015.328125 30167.685547 35526.488281
82150.976562 30447.953125 36123.878906
75300.187500 61049.914062 71350.484375
82394.226562 30153.166016 29383.978516
82657.210938 30328.146484 29360.576172
74982.781250 60996.628906 71435.000000
75198.031250 60754.648438 71467.320312
82640.273438 30117.910156 34198.785156
82459.835938 30071.664063 34409.859375
82707.359375 30200.167969 34507.363281
82745.789062 30286.027344 34838.460938
74648.398438 60940.941406 71513.031250
74868.546875 60687.996094 71548.039062
82538.351562 30324.472656 35380.433594
82772.351562 30377.666016 35169.011719
82489.765625 30217.382812 35068.820312
82304.304688 30304.916016 35614.382812
82931.687500 30207.904297 29629.240234
90252.195312 55590.308594 68055.382812
82962.898438 30081.394531 32652.992188
82981.789062 30038.335938 32351.542969
82750.687500 30000.664062 32792.851562
82937.664062 30124.005859 33001.882812
82767.289062 30076.396484 33324.941406
82791.125000 30122.228516 33641.890625
83065.921875 30248.708984 33402.316406
90020.773438 55796.125000 67961.429688
82843.265625 30185.531250 33965.062500
82916.085938 30268.595703 34266.386719
83024.640625 30392.591797 34585.519531
83445.085938 30230.966797 30151.722656
83288.515625 30397.574219 29707.339844
83131.703125 30101.105469 29949.234375
83200.242188 30009.087891 30245.640625
76498.812500 39041.093750 62906.503906
76330.984375 39216.964844 63048.359375
76591.226562 39225.210938 63065.890625
83486.406250 30101.537109 30828.998047
82989.953125 29980.552734 32038.914062
83243.945312 30075.558594 31849.248047
83519.460938 30277.412109 31970.927734
83448.656250 30162.460937 31671.341797
83233.875000 30138.894531 32173.503906
83445.546875 30306.433594 32339.054688
83196.945312 30180.037109 32487.837891
83383.812500 30329.564453 32652.191406
83295.875000 30340.931641 33017.195312
83156.304688 30206.167969 32761.244141
74330.726562 37826.054688 61587.992188
74120.429688 37781.910156 61493.234375
74060.273438 37995.328125 61688.949219
83358.171875 30437.322266 33357.250000
83020.421875 30260.273438 33752.460938
83291.718750 30442.589844 33716.734375
90046.273438 55413.820312 68277.367188
89831.921875 55565.921875 68235.804688
89991.421875 55626.433594 68126.484375
83636.828125 30244.654297 30544.695312
89427.210938 55500.187500 68428.187500
89303.351562 55732.410156 68271.265625
89603.492188 55631.906250 68258.523438
83578.921875 30168.994141 31101.986328
83517.343750 30160.642578 31386.888672
83749.218750 30290.183594 30893.109375
83800.828125 30351.730469 31262.468750
83685.070312 30321.644531 31625.207031
89794.437500 55737.996094 68099.953125
89546.054688 55840.589844 68091.445312
89765.445312 55938.808594 67918.859375
77121.328125 30801.140625 28958.804687
77526.468750 30798.099609 28943.347656
77600.914062 30616.095703 38418.988281
77373.789062 30775.630859 38576.558594
77692.203125 30830.267578 38561.296875
77922.039062 30807.492187 28934.234375
74531.031250 60635.023438 71614.710938
67286.875000 35661.632812 48522.523438
78093.304688 30660.138672 38346.648438
73941.320312 60786.085938 71645.000000
73565.226562 60824.906250 71668.742188
78634.687500 30886.921875 28920.091797
78966.015625 30470.492188 37948.886719
78736.460938 30445.490234 37995.832031
78887.507812 30659.353516 38145.707031
78599.226562 30596.900391 38171.976562
79015.351562 30911.923828 28918.693359
79447.039062 30959.101562 28911.593750
79864.718750 30886.173828 28916.962891
79662.398438 30301.355469 37498.195312
79766.664062 30472.806641 37669.156250
79675.289062 30645.326172 37886.898438
79956.406250 30829.423828 37967.960938
79982.390625 30618.699219 37744.933594
80211.093750 30899.634766 28911.316406
80682.882812 30623.921875 28970.988281
80392.656250 30665.855469 28957.849609
80183.640625 30776.937500 37833.199219
80538.742188 30923.257812 28904.822266
81009.117188 30590.070312 28981.669922
80843.437500 30621.699219 37326.687500
80530.234375 30521.291016 37364.890625
80626.101562 30728.992188 37578.718750
80873.335938 30889.710938 28908.113281
81341.625000 30568.216797 28997.935547
80887.289062 30822.197266 37560.957031
81167.007812 30824.078125 28919.753906
81698.046875 30568.208984 29012.519531
81272.601562 30576.003906 37004.855469
81491.765625 30912.980469 28908.492188
82014.359375 30579.626953 29031.771484
81746.976562 30484.097656 36517.105469
81882.960938 30832.646484 37006.640625
82000.054688 30685.242188 36690.015625
81733.789062 30637.548828 36800.011719
81478.523438 30515.783203 36766.597656
81889.031250 30856.142578 28933.990234
82251.281250 30797.119141 28998.613281
82081.070312 30549.425781 36386.328125
82307.164062 30737.666016 36544.437500
82368.781250 30597.195313 36228.910156
82660.906250 30709.154297 29134.724609
82599.718750 30460.556641 35675.972656
82355.828125 30447.562500 35921.093750
82647.640625 30820.697266 36381.015625
82648.976562 30627.371094 35998.007812
82989.531250 30519.908203 29383.869141
83027.687500 30475.882812 34964.203125
82779.250000 30465.033203 35445.238281
83017.898438 30564.822266 35307.699219
82935.164062 30653.736328 35685.785156
83317.476562 30743.701172 29412.990234
83010.210938 30811.171875 29201.091797
88985.414062 55741.812500 68371.226562
83560.656250 30625.554688 33504.000000
83305.078125 30558.552734 34441.015625
83141.960938 30411.578125 34288.550781
89157.328125 55536.226562 68487.859375
83278.953125 30603.113281 34763.296875
73433.859375 61082.859375 71617.132812
88616.250000 55392.027344 68777.734375
88508.765625 55659.539063 68614.640625
88848.343750 55532.152344 68593.914062
73201.382812 60859.062500 71683.523438
83788.195312 30452.980469 30261.416016
83617.726562 30515.527344 29888.500000
83925.914062 30458.449219 30634.150391
84092.046875 30678.039062 30375.724609
83834.726562 30499.677734 31898.609375
83711.250000 30482.138672 32239.193359
83600.093750 30457.486328 32514.425781
83845.382812 30676.576172 32545.644531
83590.265625 30516.562500 32801.210938
83575.937500 30578.181641 33155.074219
83822.539062 30754.205078 32932.503906
83822.242188 30847.968750 33334.503906
88231.250000 55682.398438 68707.828125
88338.171875 55471.859375 68817.335938
88060.492188 55556.476562 68862.281250
84008.671875 30500.113281 30988.599609
84061.031250 30563.791016 31281.218750
84253.546875 30720.660156 31112.455078
72955.968750 61027.910156 71663.007812
83961.703125 30529.011719 31562.246094
84246.031250 30762.943359 31480.603516
84110.890625 30721.164062 31826.089844
83989.445312 30705.339844 32169.230469
77127.398438 31268.183594 38929.402344
77252.796875 31017.873047 38759.117188
77322.585938 31140.703125 28914.482422
87776.843750 55658.988281 68910.492188
77724.820312 31143.208984 28904.603516
87491.609375 55734.636719 68987.585938
87615.750000 55509.601562 69060.812500
87366.570312 55513.710938 69152.640625
78111.640625 31099.755859 38667.703125
78200.429688 30885.958984 38495.757812
77962.007812 30865.808594 38532.800781
78773.406250 31298.386719 28888.673828
78356.218750 31422.345703 28884.419922
78429.140625 31120.160156 28897.257812
78653.570312 30973.949219 38456.839844
78425.914062 30776.867188 38360.578125
78396.882812 31035.525391 38560.605469
78693.601562 30781.388672 38300.148438
78902.304688 30906.753906 38344.039062
78884.148438 31139.986328 38522.195312
79416.000000 30750.341797 38070.671875
79155.117188 30826.802734 38211.914062
79415.867188 30986.154297 38268.171875
79434.578125 31341.666016 28880.484375
79751.382812 31208.197266 28882.914062
72859.195312 60777.910156 71715.101562
87190.562500 55776.128906 69095.062500
87043.218750 55491.164062 69285.203125
79681.578125 31154.132812 38325.492188
79687.265625 30903.460938 38120.507812
53063.675781 85010.539062 52940.996094
52838.734375 84914.843750 52746.039062
53192.015625 85041.070312 52653.976562
80343.054688 31240.628906 28871.417969
80236.570312 31238.308594 38225.398438
79960.289062 31074.019531 38179.625000
79957.648438 31351.304688 38397.632812
80722.078125 31203.611328 28868.308594
81117.718750 31162.294922 28869.330078
81343.695312 30753.003906 37225.609375
81109.890625 30640.626953 37204.121094
81111.945312 30797.156250 37413.675781
80751.507812 30962.773438 37778.664062
80907.523438 31214.136719 37960.308594
81102.554688 31026.341797 37686.589844
81463.718750 31640.796875 28838.537109
81473.859375 31300.039063 28855.494141
81809.171875 31480.539062 28852.896484
81755.039062 31141.048828 28875.582031
82111.406250 31177.939453 28896.931641
81384.132812 30949.843750 37460.769531
81625.273438 30888.494141 37247.660156
82503.765625 31083.380859 28964.892578
82240.671875 30904.867188 36872.546875
82110.132812 31013.166016 37125.835938
82163.781250 31193.599609 37332.085938
82345.968750 31120.597656 37118.542969
82392.812500 31369.236328 28898.617188
82856.601562 31059.226562 29047.238281
82496.218750 30910.611328 36685.140625
82532.492188 31073.863281 36913.042969
83181.976562 31062.746094 29162.068359
82716.875000 31402.558594 28944.904297
82955.000000 30840.833984 36075.121094
82988.781250 31040.171875 36410.722656
82748.140625 31050.697266 36685.410156
83027.179688 31304.501953 29028.386719
83506.859375 31089.658203 29319.105469
83515.226562 30825.302734 34872.183594
83475.046875 30726.289062 34591.027344
83284.671875 30693.978516 35105.570312
83557.929688 30966.673828 35243.558594
83745.632812 31064.451172 34933.945312
83261.882812 30791.103516 35465.925781
83431.976562 31096.900391 35904.839844
83488.703125 31030.638672 35623.492188
83228.882812 30901.873047 35816.953125
83240.195312 31061.488281 36132.078125
83687.414062 30826.093750 29628.062500
72416.007812 61060.343750 71674.906250
72504.312500 60714.167969 71732.093750
83707.250000 30949.078125 34572.421875
83538.937500 30733.933594 34291.351562
86772.296875 55322.339844 69456.851562
51863.585938 85089.976562 64444.394531
52192.296875 84948.820312 64318.058594
52053.984375 84929.890625 64638.414062
83805.835938 31200.265625 35193.207031
83739.085938 31226.794922 35482.667969
86733.281250 56044.675781 69182.351562
83926.273438 30723.019531 30001.605469
84240.523438 30948.808594 30133.769531
84139.546875 30935.431641 32430.232422
71860.257812 61189.566406 71665.109375
72113.992188 60880.398438 71713.148438
84029.984375 30913.519531 32734.617188
84054.609375 31028.474609 33032.183594
84121.679688 31213.150391 33394.457031
51978.453125 84218.859375 51660.359375
52222.242188 84267.671875 51378.203125
52263.097656 84403.453125 51714.292969
83890.867188 31003.748047 33736.726562
84130.554688 31303.232422 33751.468750
83791.046875 30966.488281 34158.113281
84035.882812 31236.736328 34060.652344
83950.609375 31193.455078 34420.160156
71731.234375 60849.734375 71723.390625
84379.039062 30912.117188 30498.349609
84495.703125 31129.306641 30271.345703
86023.914062 55831.605469 69603.203125
86302.359375 55399.917969 69621.898438
86528.085938 55496.667969 69491.000000
84205.687500 30689.865234 30751.675781
84498.992188 30955.531250 30909.156250
85845.203125 55653.464844 69745.257812
84670.351562 31127.341797 31248.308594
84443.875000 30910.013672 31260.988281
84749.000000 31273.103516 31582.259766
84505.250000 31022.533203 31544.462891
84338.890625 30920.505859 31768.548828
84261.109375 30940.541016 32072.546875
84542.531250 31175.839844 31909.595703
84413.718750 31198.453125 32321.589844
77382.531250 31463.167969 39021.378906
77447.312500 31220.994141 38863.925781
48716.976562 82751.437500 53440.601562
48507.214844 82589.585938 53234.148438
48818.890625 82723.273438 53094.664062
77528.750000 31462.933594 28891.593750
77688.078125 31403.234375 38945.210938
84951.539062 55515.011719 70182.406250
84635.109375 55723.273437 70252.046875
78108.859375 31142.888672 28898.931641
77942.382812 31519.753906 28885.560547
82559.140625 44752.722656 50405.929688
82598.281250 45013.734375 50152.593750
82259.781250 44829.066406 50129.078125
78859.804688 31384.291016 38699.101562
78623.023438 31208.369141 38632.121094
78592.007812 31445.019531 38801.226562
79131.484375 31305.324219 38579.730469
84470.453125 55989.136719 70254.515625
79702.523438 31519.425781 28869.486328
84294.601562 55801.429688 70355.226562
84371.984375 55485.824219 70394.335938
79660.421875 31785.101562 28865.765625
79936.031250 31711.451172 28860.316406
79652.164062 31391.980469 38511.035156
79842.078125 31541.384766 38568.691406
80012.875000 31409.011719 28866.791016
80039.148438 31130.359375 28883.341797
80490.093750 31424.591797 38290.078125
80543.703125 31149.189453 38041.214844
80292.390625 31640.017578 28853.548828
80571.101562 31466.234375 28852.457031
80605.695312 31713.796875 28843.847656
80886.789062 31530.984375 28845.378906
80766.640625 31640.904297 38365.253906
80754.054688 31381.132812 38165.960938
81216.492188 31480.757813 28843.035156
81228.914062 31297.775391 37911.523438
81064.328125 31490.214844 38145.542969
81901.132812 31038.701172 37289.160156
81667.976562 31089.582031 37485.378906
81930.109375 31243.828125 37528.503906
81440.289062 31173.058594 37692.570312
81538.500000 31429.896484 37909.050781
