1533
-33.785984 22.458057 10.370960
-34.541225 23.118479 10.207845
-32.700344 23.435202 9.324604
-32.899078 22.891987 9.660020
-33.917908 23.381964 9.820135
-34.031471 22.052410 10.874184
-32.236568 22.705082 9.478359
-51.538910 17.732975 26.769196
-50.936775 18.237885 26.342882
-52.019627 17.961275 26.028502
-52.346405 17.397665 26.717058
-30.314743 19.600393 11.537464
-29.579165 18.840889 11.786282
-30.116825 18.988018 12.158746
-28.470844 17.315397 -15.494821
-29.127483 17.607117 -16.002199
-29.207375 16.863113 -16.121897
-28.478964 18.132263 -15.386167
-28.938656 16.326799 -15.744075
-28.203323 16.656054 -15.157228
-27.824207 17.572920 -14.763564
-32.164505 -14.751439 25.882442
-32.643990 -15.315103 26.507494
-32.536125 -14.580547 26.939768
-33.090801 15.648861 20.609188
-33.645184 15.452502 21.124870
-33.617630 14.745664 21.695530
-34.306679 15.162979 21.880835
-65.993835 0.500318 24.870386
-66.051331 0.747011 23.880241
-66.289047 0.205617 22.799982
-66.191895 0.789109 22.120750
-66.001892 1.072522 22.914913
-66.427094 0.015580 21.721848
-66.545227 -0.543220 22.250006
-48.448307 26.696501 18.805555
-49.345280 26.394741 19.139439
-48.676514 25.990868 19.501764
-47.491238 26.485359 18.817526
-47.671928 27.143044 18.289106
-48.611889 27.303082 18.236828
-49.315258 27.001539 18.518955
-47.985310 26.051249 19.317844
-50.007935 25.985352 19.555559
-49.357719 25.638554 19.931543
-47.942703 25.319136 19.993927
-58.727615 -5.941189 -13.004321
-58.020973 -5.698884 -13.553042
-57.963272 -4.842371 -13.720295
-59.439148 -5.454161 -12.465040
-58.330254 -6.885066 -13.171690
-59.344292 -6.371675 -12.466540
-48.576466 -33.453205 23.535845
-47.665745 -33.383087 23.679085
-49.053059 -33.967522 24.222555
-48.116344 -33.027020 22.988325
-49.227352 -32.968048 22.769951
-49.472164 -33.483906 23.527447
-47.263931 -32.908924 23.197500
-46.783749 -33.344341 23.925343
-67.087120 -13.362547 27.762205
-67.215225 -13.547632 26.853058
-66.815720 -14.019354 28.669531
-66.976578 -14.058224 27.749802
-67.066475 -12.860209 28.633512
-52.998215 14.167985 -14.349087
-53.519260 14.568000 -13.424284
-52.912506 15.079673 -13.657576
-53.218288 13.063324 -15.155157
-53.731350 12.967904 -14.581426
-53.866627 13.711806 -13.794629
-52.713619 13.632741 -15.212987
-52.251251 14.795506 -14.767339
-54.313950 13.982229 -12.937867
-53.787682 15.113013 -12.665545
-53.156555 15.850834 -12.755513
-33.043224 3.933671 39.614922
-33.635902 4.785844 40.022739
-33.489189 4.046965 40.381500
-33.095455 4.640254 39.142136
-32.429348 3.702027 38.714878
-34.035595 4.954590 40.690514
-33.916981 4.334194 41.073807
-33.552090 3.605019 40.923164
-33.706562 5.390754 39.588776
-34.232105 5.689763 40.250679
-48.058151 -13.061235 53.018574
-48.602898 -13.723941 52.747719
-47.442196 -13.683622 53.174068
-46.520103 -12.968530 53.479893
-47.393288 -12.376646 53.278164
-55.982002 -32.728065 25.540457
-55.049091 -33.234005 25.596966
-55.022583 -33.308559 26.598465
-66.889816 -12.615233 2.225043
-67.216751 -12.315587 2.959544
-67.520966 -11.732654 3.260364
-67.828712 -10.848287 3.593821
-50.166225 -33.419456 39.577469
-49.562588 -33.586628 39.981499
-50.322067 -32.989746 40.311527
-49.693401 -33.865356 39.031036
-50.874611 -32.758774 39.942062
-48.992687 -34.041573 39.597874
-49.105667 -33.644855 40.493671
-49.932999 -33.010551 40.799778
-50.991489 -32.318554 40.818325
-51.134922 14.376298 -16.498594
-51.665253 13.635685 -16.482962
-51.639755 14.575630 -15.715968
-50.382797 15.039076 -16.813063
-50.655025 14.165543 -17.216343
-51.010246 15.290877 -15.846368
-58.784668 -17.299438 -6.859226
-58.903812 -16.144150 -8.170115
-58.512817 -16.767019 -7.647391
-60.514973 -15.407962 -8.129271
-59.492535 -15.590596 -8.535232
-35.992817 -25.306072 26.686440
-35.417618 -25.025267 27.390291
-33.368782 -21.493456 26.077724
-33.384686 -21.419409 25.058027
-32.947025 -20.956198 25.542198
-33.828522 -22.020044 25.875090
-33.241669 -21.437626 27.041265
-32.926319 -20.900709 26.522017
-44.522793 -0.199610 -12.566292
-43.915516 0.486163 -12.731681
-44.079041 0.987697 -13.096457
-45.355080 -0.087830 -12.843492
-43.633434 1.730454 -13.387621
-37.944397 -17.590370 16.819151
-37.144325 -17.042486 16.893936
-37.492104 -16.833307 16.123190
-37.149147 -17.643963 17.757841
-37.865429 -18.058939 17.577742
-38.517139 -17.629473 16.221397
-38.573307 -18.441910 17.376837
-38.957951 -18.332123 16.730707
-55.050129 1.917854 -14.957498
-55.823578 1.630505 -14.302176
-55.535789 0.928596 -14.829124
-54.812431 1.204564 -15.424429
-54.183208 1.917593 -15.678638
-56.116421 2.313145 -13.810681
-56.470924 0.887890 -13.968892
-56.615353 1.634511 -13.524890
-44.589874 16.672276 30.423416
-43.968655 16.609282 29.757282
-45.475368 17.288258 30.094837
-45.495731 17.972048 28.482683
-45.903751 17.761003 29.502911
-61.419594 -10.558248 41.753544
-61.986317 -10.950237 40.839367
-61.842144 -9.946463 41.143410
-61.377449 -9.608426 41.913914
-60.933594 -10.569563 42.480507
-60.935131 -11.643123 42.286205
-61.450523 -11.465286 41.528160
-61.718388 -8.832750 41.466553
-61.219776 -8.545371 42.244305
-60.881588 -9.469921 42.673908
-58.442924 2.562520 -15.487329
-58.038872 3.461825 -15.602032
-57.534286 3.988649 -15.989568
-55.212967 17.523943 -7.110882
-55.749397 16.961905 -6.692025
-55.130367 17.163565 -7.530241
-55.218838 17.948683 -6.766172
-54.741199 17.852596 -7.635958
-54.591953 18.482597 -7.401503
-62.788311 -15.753398 -4.859616
-62.403515 -15.581648 -5.840032
-62.012100 -16.338717 -5.332167
-62.872192 -16.037640 -4.124350
-63.561565 -15.115986 -4.060301
-62.174042 -16.608862 -4.640441
-63.382088 -14.983689 -4.805454
-63.052887 -15.037920 -5.526285
-42.140408 17.236340 26.972651
-42.757805 17.793770 26.507317
-43.333927 18.396317 26.041105
-42.632710 18.481701 25.803511
-62.682590 -18.000954 40.697346
-63.357044 -17.514078 39.948578
-63.009323 -18.476093 39.924942
-62.344887 -19.083462 40.577332
-62.266533 -17.867128 41.452171
-63.634060 -18.202301 39.060062
-63.140491 -19.153900 39.209869
-62.633385 -19.487635 39.792358
-53.273243 -28.220758 38.935982
-53.897190 -27.686825 38.884666
-52.794304 -28.196009 39.615330
-47.798176 -22.108469 10.052133
-48.449329 -22.713230 9.786047
-47.999157 -21.690840 9.459418
-47.219784 -21.309666 10.387150
-49.171265 -22.805511 9.238815
-49.205238 -23.365782 10.006889
-48.717232 -22.103546 8.937011
-48.379730 -23.266384 10.559968
-31.295282 -2.802217 33.109436
-31.520958 -3.043167 33.729946
-31.627832 -3.076970 34.340008
-65.018616 -8.007668 35.545532
-65.475204 -8.452640 34.575535
-65.463455 -7.506645 34.598942
-65.164391 -7.182713 35.219025
-64.549385 -8.021246 36.606335
-64.824440 -9.054070 36.130817
-65.206757 -8.851849 35.252228
-65.734978 2.378417 18.674372
-65.852959 2.260037 17.514256
-65.534599 3.073743 17.927162
-65.429306 3.324210 18.884024
-65.578773 2.770794 19.652027
-66.091721 1.360953 19.445154
-66.022125 1.636150 18.446415
-65.853737 1.941055 20.092962
-40.806679 24.127916 -14.773680
-40.675533 23.759491 -15.537384
-41.422413 23.658409 -14.903219
-40.521278 24.675646 -14.266977
-39.907688 24.862030 -14.653683
-41.305649 24.220829 -14.120039
-40.085964 24.322880 -15.264908
-41.334999 23.175213 -15.805168
-39.765018 24.051514 -16.035786
-41.975109 23.128080 -15.254670
-42.113396 23.502613 -14.486453
-55.123276 23.381992 -3.092652
-55.200478 23.678225 -2.484934
-54.635975 23.843405 -2.931121
-54.546577 23.331633 -3.297493
-55.405205 23.324266 -3.598571
-55.641193 22.842070 -2.907043
-54.898392 22.984570 -3.582398
-54.039978 23.477514 -3.092658
-50.658016 -26.024734 47.454990
-50.127670 -25.356987 48.164043
-51.331234 -25.297510 47.589535
-49.884621 -26.555950 47.537483
-50.794392 -26.848888 46.799160
-51.667046 -26.082279 46.816498
-49.323326 -24.756178 48.912369
-50.655987 -24.524460 48.383469
-49.157871 -25.813572 48.376167
-52.393677 -25.176897 47.018887
-35.178314 12.215580 28.378410
-34.386665 11.745839 27.950890
-35.256939 12.491433 27.626629
-34.633675 11.632682 29.005167
-36.103371 12.904638 28.373970
-35.288044 12.064313 29.185240
-57.520966 20.816984 13.664977
-57.896656 20.522751 13.153948
-55.820286 21.874510 15.709826
-56.105709 21.159365 16.454586
-55.334641 22.034866 16.326321
-54.843201 -14.096072 -7.407121
-54.315327 -13.179530 -7.624705
-55.042580 -13.560621 -8.192253
-54.870121 -14.982834 -6.651718
-54.286064 -13.906540 -6.827145
-55.487835 -15.792383 -6.178454
-47.907581 26.573223 15.228806
-47.671143 25.496647 16.635157
-48.023636 25.974771 15.929753
-38.953117 35.068089 -4.622959
-40.157028 34.276047 -5.383876
-39.901680 34.849384 -4.546998
-37.996914 34.964188 -4.985152
-38.092117 35.370945 -4.207522
-38.952751 35.319740 -3.938245
-65.343033 -22.861210 21.109987
-65.710594 -22.239653 21.042387
-65.364021 -22.623163 19.947903
-64.911339 -23.364012 20.572765
-64.978554 -23.445610 21.706841
-65.642349 -22.549559 22.074400
-37.028698 -6.970875 41.618031
-36.706249 -6.636742 40.860622
-36.505997 -7.548357 40.871689
-36.785465 -7.702587 41.506126
-37.325615 -7.309091 42.350826
-55.984966 18.274464 -7.838775
-56.147919 18.520510 -7.387010
-55.484592 18.959379 -8.071424
-55.636410 18.289352 -8.393478
-56.290207 17.371769 -7.975081
-56.826336 17.357796 -7.292025
-55.452358 19.200506 -7.647886
-54.852669 19.364622 -8.034655
-55.116497 18.790503 -8.515508
-21.546358 12.061510 9.870061
-21.838228 11.934929 10.516894
-21.615330 12.701518 9.428786
-22.252954 12.084282 11.089007
-25.422583 -9.408315 11.559517
-25.988234 -9.686731 11.090709
-25.683784 -9.036439 10.720181
-25.195728 -8.548991 10.843376
-24.792215 -8.825656 11.881493
-25.363201 -10.111117 12.550377
-26.556057 -10.095209 10.716084
-26.191751 -9.319497 10.194183
-58.608826 -19.907120 3.475647
-58.690865 -20.174208 4.477323
-57.818684 -20.360624 3.722630
-58.769466 -19.379709 2.261214
-59.423935 -19.225821 2.978182
-58.096745 -19.872862 2.647746
-59.335464 -19.669348 3.897235
-59.726768 -19.711346 4.826769
-59.986843 -19.175144 3.838100
-65.483673 3.230398 10.731915
-65.112411 4.012107 10.831987
-64.865433 4.623087 11.496716
-64.764008 4.720473 10.189596
-35.719822 -7.497353 39.023048
-35.368912 -8.735878 38.587914
-35.829060 -8.047290 39.549271
-35.609097 -7.070566 38.329979
-35.369274 -8.039273 38.345806
-35.968441 -6.485083 38.962009
-36.096657 -7.035978 39.681522
-40.006142 14.869823 26.087307
-39.443752 14.426995 26.346048
-24.173370 16.667233 8.312804
-24.027702 17.049603 7.753669
-33.733250 -3.531695 40.267918
-34.017815 -3.135799 40.959763
-33.989178 -3.802032 40.804138
-33.785694 -2.886835 40.455753
-33.494865 -4.160323 39.672577
-33.616455 -3.237726 39.869884
-33.739372 -4.119543 40.286583
-33.933090 -4.580626 40.728745
-34.169510 -3.785619 41.278362
-67.502815 -6.569524 34.741875
-67.737877 -6.054513 33.938107
-67.124329 -6.130953 35.440380
-66.935661 -6.843096 35.993660
-67.885063 -7.055209 33.876034
-67.517326 -7.459142 34.855484
-61.873714 12.107542 28.227482
-61.874405 11.611646 29.089693
-61.358032 11.642643 30.150114
-62.446671 11.242927 28.270987
-62.409779 10.787142 29.193146
-61.876087 11.068565 30.022099
-62.447716 11.700375 27.453615
-32.420181 1.131837 40.553219
-43.749447 28.235355 16.233946
-43.658901 28.700184 15.718318
-44.534245 28.837650 15.792319
-43.020023 27.583845 16.952810
-58.713020 18.322531 -0.465339
-57.855957 19.242016 -1.018685
-58.166153 19.406013 -0.111582
-58.401421 17.997519 -1.534448
-57.745632 18.839510 -1.754313
-59.020695 18.664721 0.789959
-59.395618 18.026182 0.663543
-59.724590 17.326748 0.518806
-59.285545 17.297609 -0.538766
-59.776146 18.149448 2.025399
-60.031166 17.423018 1.646218
-44.532009 16.568825 27.431952
-28.833118 -33.074432 45.388954
-28.148157 -32.548634 45.288788
-28.887598 -32.509796 45.921970
-28.318535 -33.192776 44.678120
-28.868509 -33.794041 44.159687
-29.772352 -32.689537 46.246105
-31.000544 -33.505959 46.090153
-34.068790 -11.293433 34.396435
-34.147430 -11.804252 35.147060
-34.307732 -11.070908 35.641125
-34.245808 -10.485338 34.881386
-33.838951 -11.646174 33.521599
-34.012455 -12.340356 34.398453
-34.028687 -10.408582 33.883114
-50.086571 27.323559 -0.988656
-49.772980 27.160463 -1.610802
-49.345638 27.647968 -1.215365
-49.543377 27.850002 -0.620932
-50.390793 27.501287 -0.356358
-50.555180 26.791441 -1.440497
-50.994431 26.960955 -0.673119
-50.077736 26.702236 -2.164015
-50.847477 26.307014 -2.123654
-51.253696 26.392750 -1.421436
-35.084854 -0.929716 34.669231
-35.061565 -1.772293 34.509060
-35.376991 -1.185872 35.515240
-35.403221 -0.455588 35.819851
-34.768456 -1.470414 33.597065
-34.851025 -0.100611 34.370113
-34.717869 -0.663154 33.837727
-35.069988 -0.034204 35.152847
-35.550591 -1.923766 36.056625
-35.319118 -2.065969 35.277542
-35.160450 -2.810947 34.661133
-34.880470 -2.418768 33.913898
-66.413452 -2.129710 5.588457
-66.609444 -1.935127 6.451949
-66.254951 -2.582524 4.786227
-66.122841 -1.608555 4.884521
-39.273109 21.935431 -18.904121
-38.890961 22.612617 -18.451649
-38.862175 23.331203 -17.777714
-25.382814 10.215198 18.614044
-26.002750 10.672567 18.912716
-25.945967 11.259390 17.941032
-25.648249 9.907293 19.367031
-25.382900 10.777590 17.853914
-24.987907 10.058748 18.098034
-54.134609 -28.694109 15.394698
-54.864140 -28.787584 15.848726
-53.718052 -28.405024 14.536502
-53.251572 -28.839235 15.330212
-53.172501 -29.169706 16.165480
-54.017326 -29.124342 16.238220
-54.335209 -27.980185 13.728769
-55.410191 20.104338 -6.570696
-54.907318 19.967703 -6.536327
-54.966843 19.774794 -6.969429
-55.593376 20.521441 -6.058030
-55.158058 20.532396 -6.549580
-55.063313 20.301363 -6.134734
-55.655209 19.661325 -6.907105
-54.403385 19.791040 -6.764855
-54.553490 19.505159 -7.186975
-54.767662 19.436129 -7.601609
-55.243156 19.583935 -7.307070
-54.758270 19.935722 -6.015885
-49.809925 25.610382 15.522910
-49.275112 26.114712 15.079782
-49.137241 25.771772 15.800002
-49.527622 25.286465 16.291172
-50.183212 25.083466 16.215454
-50.547337 25.407612 15.450738
-49.937714 26.002127 14.746603
-59.606941 -23.755098 40.959129
-59.906826 -24.137215 40.071606
-59.122517 -23.635309 41.800934
-60.337418 -23.066175 40.465843
-58.779850 -23.313375 42.685135
-58.624489 14.043926 31.038004
-21.475433 5.114931 9.827805
-18.288727 15.637344 3.422463
-18.179306 14.916201 3.368559
-18.394960 15.189336 2.431820
-18.548550 16.688002 3.333853
-18.386362 16.232460 3.938357
-18.434063 16.039278 2.791640
-18.223042 15.398576 4.158319
-18.331789 14.391703 2.476706
-18.584192 15.697949 1.769677
-18.106073 14.541843 4.050770
-18.151508 14.092060 3.111983
-33.912529 3.091149 35.165787
-34.184048 2.470007 34.950340
-33.780895 3.557732 35.727680
-34.329891 2.418381 35.712406
-34.191078 2.905463 36.285950
-34.244267 1.971331 34.401512
-34.604256 1.725502 35.320053
-51.497242 -14.677286 50.090015
-51.173317 -15.433744 50.083992
-51.996460 -15.523486 49.582249
-50.466499 -14.785077 50.615017
-50.844387 -13.871324 50.575920
-51.768684 -13.795144 50.105854
-52.310799 -14.373909 49.697384
-50.170120 -15.719199 50.525005
-50.364857 -16.584185 50.223400
-52.905102 -15.560038 49.039158
-52.745632 -14.841682 49.338520
-39.518597 29.823261 -6.534607
-40.086147 29.987230 -5.770279
-40.183075 29.371105 -6.360679
-39.963120 29.047909 -6.915843
-39.069862 29.682119 -7.033231
-40.603649 28.526039 -6.838601
-40.727921 29.224838 -6.039854
-54.581036 6.227804 43.371761
-55.269627 6.212882 42.794136
-53.554394 6.621482 43.802319
-55.265572 -23.557625 46.247456
-55.663219 -22.655893 46.506470
-54.755859 -22.221649 47.376247
-56.206978 -19.702187 -4.050130
-55.868290 -19.101566 -4.959666
-55.361217 -19.629576 -4.078067
-57.059593 -19.906107 -3.714915
-56.963196 -19.436737 -4.458712
-55.645824 -20.206106 -3.103196
-56.519424 -20.237904 -3.117779
-56.891769 -18.988762 -5.123771
-56.376663 -18.516951 -5.727585
-55.565407 -18.467651 -5.803276
-54.886791 -18.597473 -5.583788
-54.767834 -19.004190 -4.989930
-54.559875 -19.370163 -4.327595
-54.816319 -20.193338 -3.067744
-65.412834 -13.745701 -1.037712
-65.068039 -14.500506 -0.804093
-35.168720 11.506366 30.907692
-35.364326 11.407789 31.767071
-34.690861 11.401162 29.963726
-35.455078 11.962371 30.031401
-34.500648 10.991421 30.887310
-34.597599 10.778536 31.900568
-63.191341 -15.654736 3.473627
-62.828632 -15.514876 2.440611
-63.551270 -15.560654 4.328353
-32.008717 -15.308541 40.205799
-32.104176 -14.603847 39.943016
-31.702229 -15.293876 39.399063
-31.687241 -15.932662 39.784138
-31.946846 -16.015102 40.587639
-50.387463 -32.653313 28.341780
-50.357845 -32.707703 29.312963
-49.777657 -32.894932 28.529100
-50.296921 -32.599670 27.405336
-51.168720 -32.354401 29.933146
-62.231640 -10.061910 -7.002348
-62.525215 -9.326131 -6.995062
-63.362114 -9.161689 -4.966169
-63.398186 -9.702005 -4.359807
-40.656940 -31.416935 26.336418
-41.220158 -31.107233 25.565292
-33.348663 -17.163836 37.943935
-33.329140 -17.502283 38.501232
-33.693943 -16.241604 37.934582
-33.412220 -16.810007 37.421337
-33.102695 -17.489136 37.114101
-32.968472 -17.896753 37.616528
-33.385609 -17.853153 39.145618
-33.024960 -18.170549 38.425777
-64.845177 -17.540438 14.859857
-65.064537 -16.694973 13.985847
-65.263580 -16.674242 14.926362
-64.415016 -18.318771 14.834530
-65.138969 -17.234335 15.795265
-64.525719 -18.481615 15.809123
-22.088959 14.008675 -9.597851
-38.000656 29.377457 -8.528764
-37.771194 29.059721 -8.917320
-37.460178 29.526762 -8.715127
-38.428722 28.767939 -8.697667
-37.705418 29.753527 -8.168817
-38.493443 29.176956 -8.253546
-38.205097 29.739202 -7.758521
-37.983311 28.450184 -9.350047
-37.291534 29.024954 -9.334109
-51.263340 -4.908007 -12.579420
-50.430668 -4.532337 -12.139655
-50.881645 -4.189960 -13.126336
-50.988113 -5.347817 -11.689336
-51.916660 -5.595047 -12.479574
-50.584469 -28.994070 45.284832
-50.221008 -28.557400 45.861073
-51.177940 -28.092415 45.587440
-49.593159 -29.441843 45.581547
-51.197910 -29.037262 44.796074
-50.747841 -29.669767 44.525146
-50.178970 -29.765392 44.866287
-48.816498 -28.846764 46.532349
-49.642391 -28.432913 46.354084
-48.658195 -30.284334 45.422142
-48.838493 -29.545254 45.960785
-49.542645 -30.224621 44.962910
-21.107090 20.635422 -2.375619
-20.621145 19.588232 -1.724427
-28.567686 12.349985 -8.741597
-28.450893 11.903481 -8.069093
-27.820267 12.471789 -8.412474
-29.341032 12.029436 -8.892644
-29.235065 11.639505 -8.441919
-28.775351 12.624619 -9.262339
-27.737364 12.963869 -9.186744
-46.942093 34.820892 9.400800
-46.834755 34.539749 10.064790
-46.376804 34.966145 9.353209
-47.546764 34.700356 9.532689
-46.999817 35.099583 8.793361
-52.828468 -10.269701 -7.948923
-53.370556 -10.546907 -8.554023
-53.178204 -10.874461 -7.806265
-52.630142 -10.816995 -7.058603
-52.322449 -10.135298 -7.401823
-51.846436 -10.172421 -6.840038
-35.205154 -11.104939 44.999989
-35.264832 -10.119064 44.854214
-35.576313 -10.592141 45.728294
-35.381405 -11.621890 45.674145
-35.044605 -12.120508 45.120773
-34.833687 -11.573994 44.356033
-34.956829 -10.579618 44.265354
-43.030910 -18.020960 53.674423
-42.930882 -18.845011 53.589771
-44.054241 -17.849974 53.559937
-44.161018 -18.687447 53.419979
-42.004147 -17.519320 53.752151
-42.948395 -17.015026 53.769161
-48.599846 -18.965433 50.392628
-47.937569 -18.311838 50.957798
-49.666420 -19.509493 49.628746
-49.633373 -18.713161 49.945522
-48.949551 -18.106058 50.498718
-33.324165 -29.314434 48.515270
-32.815506 -28.993803 47.983307
-33.064800 -29.733723 47.998512
-33.910168 -30.034386 48.511360
-33.730148 -29.123728 49.076859
-34.948376 32.144329 -3.903038
-34.060829 32.194588 -3.688664
-33.719364 32.486408 -3.075301
-35.203945 32.404003 -3.326370
-60.437931 16.734243 10.206181
-58.911514 21.494648 18.325863
-59.138702 21.588432 17.604403
-59.467777 20.865038 18.085037
-58.670422 22.220922 17.572683
-58.801792 21.151894 19.061283
-59.177975 20.631550 19.070190
-59.060509 22.057177 16.768282
-59.529167 21.366831 16.969282
-43.964252 -36.853401 37.976795
-43.803375 -36.945595 37.083458
-43.198769 -37.054096 37.329540
-43.235611 -37.019989 38.107254
-43.621880 -36.707359 38.864025
-44.732594 -36.548470 38.098202
-44.501553 -36.765903 37.275074
-44.312805 -36.491856 38.690487
-43.405888 -37.034748 36.378098
-44.242458 -36.870701 36.248779
-42.361542 -37.196571 37.565636
-42.521584 -37.086876 36.848652
-36.254608 -17.342585 10.119816
-35.662453 -16.734602 10.863049
-35.430302 -17.389214 10.225174
-35.957169 -17.872414 9.568292
-36.689175 -16.999229 10.504960
-40.456264 -29.565042 27.862967
-40.155216 -28.902025 27.579782
-41.340279 -29.967907 27.240618
-33.261555 -35.863472 37.743301
-34.215992 -36.388603 37.754993
-33.819424 -35.831463 37.094082
-32.584965 -35.819500 38.384285
-33.693996 -36.414955 38.344105
-32.395206 -35.285900 37.672379
-32.992123 -35.328205 37.121628
-34.526009 -36.265091 37.165730
-34.974895 -37.032524 38.349251
-35.038181 -36.784279 37.848835
-39.063168 24.114735 -16.628826
-38.787380 24.699347 -16.119383
-37.919785 24.685497 -16.925428
-38.547146 24.003817 -17.235523
-39.338245 24.845917 -15.319205
-57.537247 -6.733608 49.226639
-58.508556 -6.322122 48.607418
-56.488880 -8.137488 49.754681
-56.659859 -6.840093 49.708687
-44.632744 21.147293 -16.121931
-43.996387 21.655062 -15.742706
-43.641327 21.390409 -16.655197
-45.338120 20.499632 -16.453356
-45.403770 20.945892 -15.575113
-44.427746 20.812876 -16.899952
-44.100910 -6.062872 53.442112
-43.495174 -6.839207 53.509232
-42.985336 -6.111795 53.306877
-43.732262 -5.362570 53.282825
-43.999001 -7.788939 53.667236
-43.057808 -7.546474 53.555199
-42.375637 -6.645738 53.221119
-64.957207 -19.573469 24.951027
-64.355423 -20.572821 24.837706
-64.575226 -20.195150 23.857840
-65.359253 -18.736982 25.030510
-65.098518 -19.100914 26.132755
-65.096092 -19.325048 23.751848
-64.667496 -19.970060 25.714828
-64.225685 -20.773258 25.904039
-64.225517 -20.733725 22.874786
-64.706963 -19.892395 22.693058
-24.057957 27.326904 -0.213554
-45.053379 16.029226 29.682743
-45.615036 16.397120 29.338715
-45.268353 16.534033 28.501196
-30.796581 13.922057 -14.930895
-31.143831 14.123731 -15.916871
-31.443890 13.620418 -15.195301
-30.763826 13.612552 -14.025621
-29.999638 14.158571 -14.455643
-30.253767 14.389012 -15.360674
-31.715115 13.211396 -14.386388
-31.944393 13.981218 -16.656948
-32.030663 13.465685 -15.595272
-30.505713 14.797419 -16.243038
-31.354275 14.480718 -16.745153
-43.271687 -27.759178 50.007454
-42.419300 -27.882772 50.288197
-43.175892 -26.960018 50.563133
-44.105862 -27.405888 49.870941
-43.710217 -28.400587 49.396553
-42.153282 -27.088230 50.908504
-42.715553 -26.372757 51.125282
-43.458981 -25.809721 51.135353
-44.051220 -26.572481 50.420498
-41.481804 -28.297129 50.397804
-41.339611 -27.488491 50.973598
-56.321545 -1.330173 -14.812841
-57.049725 -1.187034 -14.157013
-57.709251 -2.004223 -13.712042
-32.909824 -36.532017 40.589554
-32.751289 -36.348515 41.378075
-33.802654 -36.605778 41.533142
-25.930798 -1.633202 18.494005
-26.245958 -2.227196 18.852285
-26.609322 -1.457740 19.126863
-26.036018 -0.837751 18.244087
-26.432997 -0.582289 18.845638
-26.886145 -2.231305 19.515572
-58.956303 -22.693993 12.032050
-58.126858 -22.902195 11.474796
-58.739029 -22.462486 11.068806
-59.444530 -22.112085 11.216605
-59.755459 -22.264627 11.989133
-59.535759 -22.672310 12.860224
-58.629726 -23.121641 12.776372
-57.879314 -23.226925 12.121791
-58.033638 -22.645447 10.616125
-58.233231 -22.262215 9.912986
-59.110596 -22.023962 10.333293
-59.771015 -20.398819 43.695202
-60.224583 -19.009134 43.937199
-61.451614 -14.556925 40.605305
-61.475353 -13.328120 41.019794
-61.042004 -12.640060 41.879070
-33.549175 -18.259190 24.919228
-33.693554 -18.671375 23.762436
-33.865993 -18.888327 24.712311
-33.961498 -18.461191 25.837276
-33.347637 -17.653419 25.377562
-33.174080 -17.879095 24.157837
-33.564716 -18.287169 22.925293
-34.006016 -19.168810 23.119339
-34.392990 -19.196495 25.854305
-57.225212 14.119763 -6.548971
-58.022926 13.259634 -5.900466
-58.488705 11.957869 -6.015846
-62.896336 -6.442206 -7.396917
-63.070164 -6.754150 -6.778105
-62.456718 -8.203612 -7.793778
-62.625198 -7.146413 -7.818813
-62.235695 -8.984141 -7.691805
-26.113043 -3.692811 9.962626
-24.359873 6.251987 14.872438
-23.872673 5.666325 14.127168
-24.434610 5.305500 14.475667
-24.798000 5.560312 15.171475
-24.833994 6.466640 15.772370
-31.879980 -18.218893 29.165920
-32.075840 -18.799194 28.638500
-31.631561 -17.993076 28.343132
-31.781898 -18.591949 27.617670
-32.170647 -19.245941 27.961231
-32.305687 -19.438831 28.888596
-60.657398 -14.869519 45.103989
-60.348049 -14.412792 45.654346
-36.572914 -14.503266 44.344028
-36.668152 -13.495870 44.053066
-36.171791 -14.305264 43.424286
-36.792717 -15.395955 45.082001
-37.086842 -14.418127 45.172150
-37.186935 -13.377355 44.887875
-35.991451 -15.153542 43.542515
-36.416847 -15.468897 44.407558
-37.345169 -15.114306 45.882748
-36.361069 -16.482620 44.773849
-23.911987 26.018940 1.596388
-23.438454 25.113993 1.744387
-23.594669 25.846230 0.941836
-24.366676 26.878563 1.443603
-24.471163 26.532309 2.114693
-23.999550 25.628979 2.277644
-24.006950 26.757248 0.758512
-24.482460 27.532789 0.944258
-55.869534 5.887920 -12.746622
-55.273315 5.984953 -13.393374
-55.618923 6.727189 -12.855502
-56.421509 5.945508 -12.030275
-56.289379 5.180799 -12.597326
-56.110046 6.695798 -12.193630
-55.604271 5.128449 -13.339676
-55.019188 6.670062 -13.494987
-55.038841 7.466667 -13.092770
-55.732948 7.439577 -12.282194
-54.961246 5.571315 -14.017006
-54.435104 6.243231 -14.277311
-54.690327 -22.520605 7.679314
-54.648514 -22.961306 8.714348
-56.887077 15.176705 -6.311709
-56.162712 15.632074 -7.033743
-56.228100 16.192865 -6.526986
-56.499012 14.652663 -7.229335
-57.380264 15.264300 -5.516164
-57.740227 14.308049 -5.646521
-58.307522 14.322884 -4.807217
-47.464222 -28.233170 15.973574
-46.978619 -28.405405 16.646576
-46.261711 -28.256258 16.928587
-45.629230 -27.723495 16.501173
-44.953346 -26.994202 15.609168
-42.925472 18.380939 23.365265
-42.287376 17.952332 23.422331
-43.064831 17.887012 24.062878
-42.351833 18.544750 22.587009
-42.976910 18.995823 22.610910
-43.538609 18.762724 23.205101
-42.131508 25.534840 -8.979671
-42.868778 25.447922 -8.600102
-43.007725 24.962183 -9.282488
-41.696964 26.191124 -8.492821
-42.398422 26.036158 -8.150884
-42.310947 25.003572 -9.691628
-41.287014 25.884138 -9.120449
-43.488800 25.656139 -8.580700
-43.634453 24.975500 -8.827926
-42.858536 24.471361 -10.115154
-43.482983 24.488089 -9.701692
-53.287235 -3.964472 -15.897305
-54.205780 -3.697541 -15.986706
-52.599194 -3.375373 -16.037640
-53.486111 -3.107165 -16.279121
-54.093395 -2.497674 -16.274771
-53.039028 -2.261118 -16.520958
-67.504265 2.076039 26.308111
-67.970718 0.891572 26.124329
-67.549911 1.464135 27.266817
-67.252441 2.328115 27.180412
-66.977058 3.092114 26.771902
-67.379555 2.749269 25.368195
-67.725372 1.717237 25.428062
-68.376884 -0.243925 25.834454
-68.277634 -0.289976 26.712374
-68.298264 0.266963 25.027521
-68.035889 0.997269 24.891781
-67.917686 0.575975 27.094530
-67.688492 0.733901 28.057276
-67.338120 1.447553 28.556368
-67.097733 2.200566 28.235023
-42.472115 -14.961595 53.311256
-42.973049 -15.466592 53.309486
-42.954063 -14.085609 53.359013
-41.802486 -14.656981 53.174461
-43.517616 -14.823640 53.329330
-42.024139 -13.767331 53.192875
-41.108803 -14.350314 52.867973
-43.517948 -34.000084 32.502125
-44.227982 -34.118252 33.331783
-43.260635 -34.144440 33.317410
-43.433590 -33.757999 31.539185
-44.199715 -33.867256 32.056137
-42.381596 -33.901310 32.662968
-42.702553 -33.706970 31.922974
-42.132912 -34.032398 33.285007
-41.534565 -33.852291 33.195431
-41.259048 -33.478783 32.287689
-44.901089 1.427779 49.470104
-45.383709 0.937273 49.848534
-45.938557 1.857874 49.365105
-43.975502 0.989458 49.333076
-44.522945 0.605617 49.826374
-45.297863 2.253108 49.146835
-44.483345 1.982915 49.053108
-44.975189 0.038900 50.283363
-45.828976 0.302965 50.231182
-46.278900 1.260628 49.691147
-40.955055 18.269381 -18.011463
-40.820839 18.989206 -17.504515
-41.789948 18.563951 -17.561649
-41.783443 17.696192 -18.200998
-40.884808 17.458027 -18.419407
-40.107300 17.848494 -18.399759
-39.826382 18.626640 -17.937120
-42.739731 18.666798 -17.204723
-42.421032 17.939110 -17.875759
-42.019135 19.291239 -16.998663
-69.635918 -4.801517 11.417803
-69.493568 -7.423004 10.501201
-68.126152 -13.002829 32.806877
-68.305305 -13.268186 31.932369
-67.951317 -12.337255 33.430328
-68.509201 -12.117411 32.082611
-67.483635 -12.627843 34.490475
-67.963203 -11.421050 33.802036
-31.518986 -35.784954 42.001339
-32.379494 -35.812176 42.964165
-32.608032 -36.108761 42.172474
-31.753178 -36.018608 41.156746
-30.555885 -35.364376 41.740658
-23.825735 19.544371 -7.254756
-23.951555 18.916048 -8.305274
-24.080370 20.705967 -6.705315
-24.131887 19.747175 -8.057073
-24.268499 20.557905 -7.552155
-37.623238 33.956902 2.528930
-38.732029 33.814358 2.706403
-38.324841 33.814106 2.294373
-38.109402 33.967449 3.201795
-37.856956 33.837845 1.885866
-36.827179 34.029018 2.220694
-37.280743 34.000950 3.027283
-35.554203 0.014393 40.873722
-35.459232 0.473568 41.194733
-35.613865 -0.123348 40.562740
-36.181068 0.925445 41.683434
-35.582100 1.204031 41.653885
-35.738266 0.153086 41.734138
-35.634750 0.042454 41.355221
-30.720032 15.479218 16.724499
-30.449102 14.815735 17.291071
-31.235258 15.332316 17.311277
-30.516901 15.927115 16.045021
-31.129457 16.335560 16.102383
-31.464073 16.044685 16.690870
-64.587952 -0.497107 32.810802
-64.524117 0.395301 32.075649
-64.258636 0.086750 33.103779
-64.924110 -0.535266 31.872343
-64.164513 -0.553349 34.022102
-64.542122 -1.213891 33.589115
-64.887680 -1.249172 32.637875
-50.537720 -35.120899 31.317625
-51.051441 -34.878971 31.961018
-51.417469 -34.876030 30.833040
-50.193054 -35.120667 32.455620
-50.449745 -35.274872 30.424234
-48.482208 29.839155 15.833175
-48.583790 29.206221 16.531061
-47.989525 29.422211 16.378220
-49.012871 30.084824 15.396502
-49.122555 29.424711 16.120399
-49.605282 29.695116 15.648774
-49.477547 30.382912 14.867158
-48.635048 30.550016 14.960979
-35.691269 -35.121792 34.792252
-67.040421 -15.560776 7.751149
-39.993931 11.943976 34.396687
-39.114964 11.350135 34.925896
-39.949303 11.536198 35.391685
-40.167843 12.405271 33.346142
-39.389198 12.101859 33.244274
-39.092941 11.702365 33.945602
-41.019043 12.813466 33.284557
-40.652424 13.044232 32.187538
-39.568336 12.479914 32.392376
-47.671413 35.253426 7.080187
-47.790363 35.175724 7.817516
-47.063572 35.338154 7.987024
-63.284565 15.834380 9.036296
-63.376484 15.975086 8.045527
-63.496021 14.903176 8.846886
-63.316463 15.256475 9.714654
-63.034611 16.835546 9.411966
-63.144985 16.629040 8.623619
-63.140854 15.966625 10.126349
-63.032188 17.386639 8.201829
-44.230049 -9.465267 53.813492
-43.418587 -10.305804 53.851543
-43.000454 -9.362590 53.758923
-45.225220 -8.818670 53.712036
-45.767052 -9.546566 53.678150
-44.350899 -10.318532 53.848564
-45.320438 -10.106571 53.753273
-43.341869 -8.584629 53.719261
-44.294052 -8.592143 53.745872
-42.613213 -10.319695 53.769531
-42.072502 -9.416874 53.558308
-42.354652 -8.333605 53.508083
-52.456112 10.539797 40.446564
-52.917667 9.982074 40.757008
-51.985340 11.191449 39.895695
-53.934929 9.586020 40.379902
-52.849533 9.474950 41.454723
-34.394333 -14.593531 17.159208
-33.712700 -14.451753 17.855078
-33.943153 -13.879624 16.786907
-34.586052 -15.238935 17.708565
-34.718578 -14.309955 16.299974
-35.187977 -15.109632 16.717081
-33.147415 -13.788151 17.756870
-33.271080 -13.338228 16.946743
-33.410706 -12.917988 16.141256
-34.088448 -13.368734 15.822480
-33.018562 -14.771003 19.130440
-32.643383 -13.894885 18.590830
-33.626587 -14.984628 18.632481
-32.262207 -0.799100 37.144123
-32.550018 -0.852715 37.938812
-32.517860 -1.418514 37.387798
-32.040558 -0.627990 36.483303
-32.076073 -0.079316 37.159187
-32.297890 -0.271449 37.779598
-32.708820 -1.704626 37.933430
-32.687096 -2.255702 37.385498
-32.801464 -0.991787 38.561874
-32.563797 -0.195777 38.527920
-38.963730 -6.627707 50.099991
-38.157661 -7.614457 49.492527
-37.973995 -6.955577 49.035679
-38.364586 -6.112166 49.271660
-39.529110 -5.827622 50.505936
-39.776001 -6.635612 51.079971
-39.090847 -7.388765 50.526314
-40.139519 -5.766422 51.260876
-39.812771 -7.537463 51.437256
-40.407303 -6.721889 51.878738
-35.742298 37.041996 -0.366177
-35.756683 37.289013 0.552534
-41.726265 13.370648 32.610394
-41.465111 13.662437 31.464325
-40.524765 13.415176 30.984545
-39.808174 12.813603 31.741705
-42.678741 13.513848 33.326614
-37.222790 12.112869 33.171261
-36.469284 11.591174 33.386978
-43.387444 -33.879124 26.639708
-42.709335 -33.983627 27.284351
-43.355846 -34.311646 27.319719
-57.701061 -28.719877 28.274044
-57.759621 -28.518024 29.261570
-35.882210 22.830044 -15.497869
-35.182499 23.588684 -15.129283
-36.242599 23.421066 -14.995317
-35.122257 22.941643 -15.540235
-37.105240 22.986769 -15.107208
-35.581120 21.967293 -16.098066
-36.585289 22.296026 -15.737929
-34.864346 22.388769 -15.900691
-34.220844 22.952944 -15.619953
-49.808624 -1.250625 -15.766699
-48.761185 -1.034022 -14.680245
-49.144341 -0.633065 -15.614939
-50.969627 -2.003886 -16.172192
-50.092842 -0.835292 -16.485134
-59.018322 18.165098 14.423243
-59.528915 17.213526 14.734612
-59.399891 17.671814 14.120563
-58.604965 19.104998 13.767849
-58.609238 18.789621 14.639369
-59.191765 18.285603 13.518300
-58.971981 17.997198 15.212564
-59.594528 17.483255 13.501048
-59.786381 16.823059 14.025702
-59.692364 16.557531 15.627835
-59.991238 16.183647 14.709597
-59.354794 17.277281 15.468781
-30.293045 -8.737075 24.515274
-40.027149 -33.790592 42.661552
-40.473297 -33.480949 43.149460
-55.564957 10.122525 -14.879236
-56.017937 9.309199 -14.898093
-66.882164 5.265603 10.425900
-66.994881 5.166259 11.401065
-66.704567 5.793008 10.940899
-45.413315 13.331610 -18.446602
-44.217293 12.152683 -18.959715
-56.383804 0.212624 46.476124
-55.018238 0.590412 47.170830
-55.532558 0.976650 46.661926
-57.112900 -0.073438 46.026913
-27.118979 -3.099843 19.715982
-38.593899 28.188932 -9.027626
-39.313213 28.543070 -8.078226
-39.067081 28.163675 -8.638264
-40.369305 25.314568 13.267480
-39.856709 24.483639 13.121752
-40.426041 24.694056 13.595901
-41.007664 25.562628 13.774629
-39.764233 25.137283 12.732517
-48.815815 29.362137 9.689552
-48.349384 29.457092 10.185428
-49.345543 28.866247 9.744438
-49.514904 28.139708 10.799581
-49.680073 28.449825 10.086626
-59.687263 1.397947 -9.246352
-59.158222 2.017962 -9.784280
-59.470490 2.393210 -9.058695
-30.618774 -32.735455 46.579304
-46.738632 20.033979 23.185572
-45.785641 19.790306 23.062046
-49.532654 33.217693 11.037665
-48.851215 33.588066 10.902313
-49.386257 33.675152 10.438867
-49.148571 32.962200 11.602558
-50.177326 33.115517 10.589073
-50.088112 32.762955 11.208574
-51.040791 -32.214542 26.830505
-49.619209 -32.526550 26.881439
-33.770336 32.869728 7.233953
-34.394020 32.893925 7.628837
-34.517101 32.431957 8.357124
-50.234356 -32.388386 32.441700
-50.937943 -32.035427 32.576824
-50.575665 -32.011574 33.457878
-49.652813 -32.512974 33.098675
-50.015884 -32.624802 31.690165
-50.772415 -32.278107 31.625393
-51.317974 -31.562342 33.810883
-50.512245 -31.788832 34.501011
-51.742977 -31.557133 32.821949
-49.869446 -32.179733 34.229298
-51.514935 -31.864658 31.897202
-66.900337 -0.777414 13.835178
-67.057449 -1.519816 14.245715
-66.872055 -0.584704 12.995419
-67.078873 -1.500068 13.355759
-31.244452 -15.224600 38.087509
-30.996700 -15.260475 37.415440
-31.237513 -14.646495 37.689957
-30.861811 -15.900748 37.768177
-31.172169 -15.742852 38.461369
-31.506247 -14.536498 38.274311
-31.543182 -15.089670 38.795967
-31.544146 -13.943567 37.933441
-31.811251 -13.678182 38.534630
-31.685843 -14.277294 38.733669
-40.512150 33.016006 10.735124
-39.783100 32.989964 10.600325
-40.151802 32.505939 11.219898
-28.136993 -22.056635 38.205441
-27.813410 -21.990566 39.001045
-27.997147 -22.753632 39.216217
-28.041243 -22.123756 39.673580
-31.567427 -25.912617 42.780994
-31.336348 -26.130938 42.102924
-31.519520 -26.314514 43.292664
-31.414768 -26.735561 43.683472
-31.664396 -25.354542 42.298389
-31.429220 -25.678608 41.529850
-31.366970 -26.391964 41.343430
-31.934780 -25.736374 43.534260
-32.179588 -25.186213 43.117455
-50.348110 -30.996151 37.482533
-50.925797 -30.843973 36.903858
-49.812626 -31.506649 36.960857
-50.402714 -31.333973 36.349857
-50.042263 -30.883392 38.348820
-49.546852 -31.417990 37.727688
-50.562531 -30.310274 38.832466
-25.299259 11.495235 -5.464263
-24.550133 11.714092 -5.286479
-23.711306 12.321686 -5.650801
-31.037235 30.896797 7.308516
-31.198408 30.308197 8.671685
-31.301853 30.810816 7.964517
-31.608953 31.448997 7.288772
-31.711227 30.930338 8.555658
-67.447807 -3.942411 16.805561
-67.373215 -3.127218 15.938244
-39.874966 24.037062 -12.743289
-39.236580 24.034058 -13.104918
-39.411564 24.606617 -12.367267
-40.444317 23.563324 -13.007851
-39.943157 23.417759 -13.406935
-40.390327 24.076378 -12.293279
-18.071875 13.774106 3.973677
-18.102514 13.242703 3.038852
-18.145412 14.835177 4.774900
-18.064947 14.043521 4.968417
-36.900436 -23.914820 21.986017
-36.246090 -23.333956 21.709351
-37.793655 -24.491940 21.512074
-37.148167 -23.879253 21.038933
-35.721531 -23.120472 22.633415
-38.050373 -25.139675 22.619295
-41.228165 -3.004015 51.281643
-42.180592 -2.639114 51.839699
-40.270790 -3.291451 50.508415
-40.651512 -3.747524 51.083580
-41.531460 -3.563633 51.821770
-20.540670 12.715396 -5.545131
-20.813595 12.953782 -6.513935
-20.987082 13.767384 -6.745189
-42.884308 17.193691 -20.978062
-42.285564 16.540691 -21.350594
-43.433620 16.460926 -21.105148
-43.871597 17.259010 -20.697794
-41.955318 17.496441 -21.197939
-46.653996 33.423378 -0.323309
-47.197643 32.667103 -0.788865
-47.281811 33.085854 -0.198181
-46.482933 33.961956 0.221717
-45.910919 34.028664 -0.275581
-46.210777 33.467903 -0.711673
-46.696457 32.894424 -0.971903
-47.145523 33.529530 0.340013
-40.328560 22.843884 -13.934373
-39.436794 22.956091 -14.181303
-39.241650 23.494053 -13.741579
-41.441422 22.505144 -13.837989
-40.841496 22.265827 -14.373172
-39.900066 22.458082 -14.598460
-40.877083 23.045172 -13.418356
-39.079250 22.427326 -14.886428
-38.586525 23.334589 -14.262604
-38.535099 24.010601 -13.503291
-61.423645 -5.751168 45.499310
-61.877846 -5.830721 44.812767
-61.519115 -6.737091 45.384155
-60.993324 -6.372452 46.035488
-60.870979 -5.387961 46.222530
-61.935692 -4.792169 44.743423
-61.299004 -4.924316 45.607445
-61.984657 -7.093736 44.694046
-62.356842 -6.338053 44.130363
-62.393177 -5.308103 43.990173
-61.533810 -7.889242 45.290283
-61.080299 -7.375271 45.960258
-42.537613 -30.720945 46.422009
-41.574989 -30.261143 47.372807
-44.506847 -30.856079 22.431761
-44.496025 -30.216949 21.684141
-45.168564 -31.367407 22.506540
-45.122501 -30.684023 21.729704
-44.693855 -31.597305 23.073467
-43.940456 -29.738083 21.555584
-45.063553 -30.075006 21.007360
-35.464558 3.156016 -15.537348
-23.324505 -3.220636 8.048290
-23.561548 -3.880647 8.488153
-24.152916 -4.206269 8.912163
-63.291000 16.767576 7.396648
-63.009380 17.749958 6.976944
-63.305653 16.970661 6.388021
-63.491730 16.092585 6.567139
-63.542412 15.528322 7.353068
-58.692524 21.112123 8.209462
-58.398342 21.617207 7.653108
-58.280815 21.679213 8.474363
-58.802704 20.962902 7.322776
-59.134319 20.458078 7.835512
-58.415390 21.334568 9.066613
-58.450924 21.564146 6.833127
-58.007362 22.149988 7.096673
-20.642223 15.244031 1.042392
-20.790365 15.136665 0.224822
-20.421822 14.793788 1.714173
-21.065584 14.649587 -1.206764
-21.030863 15.352811 -0.580899
-33.049294 22.844734 -15.657808
-32.422817 22.163584 -15.923138
-32.127769 23.157757 -15.294219
-33.546234 22.202337 -16.101892
-32.787594 23.801538 -15.121666
-33.632957 23.509705 -15.286119
-31.417673 22.235725 -15.552099
-31.389872 23.105001 -15.100932
-31.887609 24.055763 -14.694596
-32.634274 21.401329 -16.332577
-31.669401 21.366812 -16.078255
-29.409966 -18.854012 35.789181
-30.043922 -19.987171 35.726341
-30.237423 -19.094866 35.251995
-29.743378 -18.333170 35.351540
-28.792917 -18.223162 35.421089
-28.832607 -18.540289 36.189346
-29.443136 -19.480349 36.039913
-30.337303 -18.323624 34.887909
-30.517818 -19.803999 34.992199
-30.952442 -19.270929 34.356594
-29.274014 -20.480076 36.441204
-29.921204 -20.731216 35.914154
-30.475409 -20.698143 35.237179
-47.112648 10.062860 -20.654177
-47.742859 9.501164 -20.588785
-46.445351 10.137431 -20.923702
-46.564083 9.411629 -20.929455
-46.729645 10.904491 -20.727774
-47.196869 8.997426 -20.826252
-46.416729 11.645556 -20.715403
-45.920738 10.997935 -20.958595
-35.563999 37.360554 1.275220
-63.647942 5.000266 -5.183545
-63.991829 5.208186 -4.174809
-35.179554 11.098897 28.041567
-64.348152 1.164586 -5.782631
-64.175827 2.011177 -5.593939
-63.980316 1.744614 -6.388550
-64.575294 0.365529 -6.054211
-64.726357 0.709437 -5.236675
-64.274269 0.783452 -6.573626
-64.573547 1.481216 -4.897200
-43.762276 -31.654613 46.832985
-42.576591 -31.286602 47.636650
-43.136829 -30.813723 47.833347
-42.938210 -32.180874 46.634464
-42.267414 -31.814165 47.285217
-43.996399 -30.914917 47.358948
-41.197292 -31.194132 48.281273
-43.635674 -30.101751 48.185520
-64.556023 11.100755 5.111032
-64.458572 11.420194 6.182727
-64.455872 11.842955 4.386463
-40.521221 -36.680798 35.066841
-40.981861 -36.912243 35.706192
-41.335987 -36.742271 34.896221
-40.222820 -36.374023 34.418491
-39.383781 -36.360886 34.817627
-39.938686 -36.790897 35.629467
-41.020863 -36.399361 33.967484
-40.066219 -36.077126 33.714859
-48.701225 19.813883 27.545498
-49.130630 19.633669 28.122540
-49.006809 19.034010 29.317698
-49.397305 19.380350 28.683388
-67.360031 -13.620721 34.370770
-66.951363 -13.610531 35.384724
-66.943024 -15.575961 34.369473
-66.581581 -14.991765 35.445721
-41.459068 16.775993 27.257648
-40.645496 16.297470 27.485937
-41.237274 16.237085 27.817982
-59.550713 -22.893948 5.653189
-31.481873 -31.310490 47.947731
-32.411816 -31.748852 48.137257
-31.677782 -32.095051 47.571171
-31.560514 -30.675573 48.315796
-30.889357 -31.536991 47.472309
-30.907291 -30.651987 47.880207
-32.361496 -32.536186 47.525383
-31.651520 -33.104843 46.756920
-31.103687 -32.282131 47.123756
-32.994160 -31.382599 48.674973
-33.150890 -32.126671 48.150745
-61.295292 -21.454309 12.594583
-61.847412 -21.120098 12.911279
-61.731838 -21.518112 13.731899
-61.663910 -20.971666 12.059971
-60.876701 -21.913954 12.912153
-60.682182 -21.757425 12.156158
-61.022255 -21.305071 11.643151
-61.139599 -21.970350 13.525604
-62.296078 -20.893980 13.487175
-61.491970 -21.972290 14.481962
-47.627621 35.271507 6.218308
-48.294182 35.051350 5.829525
-48.164467 35.115173 6.617143
-47.588169 35.252632 5.455648
-46.858585 35.525494 5.688591
-48.777542 34.913342 6.282961
-48.196564 34.927708 5.119755
-49.041897 34.669895 5.467690
-51.028275 7.699343 -19.794367
-50.100441 8.359858 -20.034927
-38.766701 -23.465088 22.143972
-38.978287 -24.013922 22.866985
-38.338676 -23.547491 23.226616
-39.412296 -24.135015 22.122801
-38.093792 -22.988003 22.363689
-38.621716 -22.941359 21.338421
-38.076622 -23.662685 24.272001
-37.790932 -23.715338 25.313107
-37.425148 -23.090141 24.596375
-37.746933 -23.130365 23.704967
-38.793003 -24.218716 23.802277
-38.394821 -24.216042 24.723951
-38.720131 9.816197 -17.418734
-38.540646 9.392052 -16.473261
-38.123642 10.014672 -16.966307
-39.210072 9.155423 -16.971210
-38.504349 10.378807 -18.182600
-39.190685 9.758928 -17.973665
-63.179836 -4.612062 38.460556
-62.775635 -4.783202 39.340267
-63.115059 -5.727418 38.879436
-63.748772 -4.395351 37.297733
-63.587173 -5.364794 37.923599
-63.472252 -6.614655 38.462677
-22.301165 16.287601 -9.890470
-22.686714 16.603498 -10.673433
-22.768436 17.394039 -10.860168
-35.720291 33.188564 4.585634
-35.208153 33.408115 3.980690
-35.153187 32.922089 4.654737
-35.572281 32.747791 5.183370
-35.914135 33.526711 4.067053
-23.494541 22.263819 5.759850
-23.974346 22.903265 5.507483
-24.204763 22.446068 6.106056
-23.521931 21.660379 6.425240
-22.812267 21.733868 5.932559
-23.407721 22.775640 5.027251
-22.671041 22.133488 5.281384
-24.813505 22.929781 6.131344
-24.889381 22.429321 6.702137
-24.268734 21.951523 6.667602
-24.046946 23.354383 5.015643
-24.613953 23.492683 5.505772
-52.745674 -29.984200 36.116619
-51.674625 -30.547993 36.369003
-42.120121 16.906988 -18.478979
-42.973869 16.862041 -18.369200
-41.278698 16.811047 -18.680489
-31.800497 29.720043 5.650403
-32.286655 30.248789 5.488239
-31.471130 29.820641 5.060409
-31.089451 29.041002 5.535120
-31.586512 29.053671 6.123146
-30.785566 29.263506 4.980946
-32.199444 30.547329 4.900382
-31.527172 30.260136 4.534922
-30.893433 29.797245 4.382059
-54.436176 -20.856493 -1.503330
-54.447483 -21.277662 -0.565527
-55.395332 -21.260101 -0.790225
-55.272488 -20.776686 -1.947907
-54.099609 -20.493219 -2.323403
-53.622562 -20.934174 -1.123909
-54.991570 -21.652920 0.146891
-56.078899 -21.722326 0.221482
-56.242649 -21.232498 -1.072332
-61.837795 14.803707 23.464914
-62.383751 13.882859 23.627003
-62.280304 14.465774 22.728924
-27.662422 -8.020758 26.174362
-27.174582 -8.172340 25.541962
-28.071922 -8.121394 26.988266
-65.458130 3.016629 20.697012
-65.208107 3.804674 19.725513
-65.038361 3.959678 20.722723
-65.073021 3.683053 21.962706
-65.488235 2.711025 21.679903
-65.808609 1.915931 21.081524
-23.364443 20.086790 -4.148311
-23.641396 20.688261 -4.485988
-52.175190 -31.208237 33.392910
-51.802010 -31.101803 34.518547
-52.609634 -30.868214 33.871693
-52.924896 -31.068495 32.449421
-53.046471 -30.836878 33.203625
-57.698238 -24.723679 8.519496
-57.349201 -24.457687 7.627015
-56.907806 -24.863449 8.348860
-57.061028 -25.227917 9.240058
-58.336048 -24.651468 8.923316
-58.103821 -24.262323 7.803424
-47.661686 3.604126 -18.502623
-47.308064 4.477707 -18.696550
-47.949551 4.482024 -18.652212
-48.359138 3.881203 -18.548288
-47.706039 2.780482 -18.162935
-47.032967 3.063541 -17.958227
-46.839443 3.962440 -18.444311
-46.428917 2.866819 -17.211819
-46.435551 3.497822 -17.872208
-47.227448 2.313836 -17.373903
-54.302826 24.578402 0.582037
-54.166656 23.777714 -0.860442
-54.057121 24.220760 -0.322673
-37.338112 -28.721405 27.683764
-36.857746 -29.093307 28.534613
-36.836426 -29.902536 29.151203
-62.567558 -0.704894 42.235516
-61.950264 -0.013042 42.868763
-62.548244 -0.009247 41.802879
-63.078136 -1.094748 41.541050
-62.239338 -1.008439 43.019154
-62.752228 -1.454767 42.315536
-61.561123 -0.234354 43.693478
-62.080048 -1.849501 43.640377
-61.771927 -1.079121 43.832340
-62.587696 -2.029022 42.850906
-39.290272 13.606209 31.894758
-40.086082 13.701347 32.512581
-39.350769 13.269676 32.768768
-38.415928 13.239855 31.784235
-38.899036 13.749642 31.095085
-39.530491 14.185260 30.734272
-40.137764 14.149817 31.504448
-38.601566 12.950492 32.730404
-41.950874 33.758751 10.246098
-42.209179 34.235458 9.934405
-42.972485 34.533447 9.872688
-41.999245 34.598152 9.513867
-63.496193 -19.242287 38.509529
-63.430546 -20.010529 38.014050
-57.565170 25.103380 2.918871
-29.630709 27.460806 -14.790187
-30.262714 27.695610 -15.069021
-29.927107 28.171370 -14.236930
-29.293455 27.850969 -14.117679
-28.885319 26.945848 -14.508242
-30.068111 26.833496 -15.663434
-29.371578 26.633997 -15.203191
-66.882545 -5.253397 28.915833
-66.376083 -3.308239 29.321974
-66.724518 -4.062135 28.611122
-66.721657 -5.630326 29.910288
-41.507477 21.390459 17.816149
-41.892426 22.305372 17.484886
-41.299747 21.936615 16.771271
-41.009068 20.464281 18.000397
-41.678291 20.935575 18.816484
-42.122768 21.839575 18.434063
-40.848030 21.034058 16.978525
-40.469173 19.644171 18.174816
-41.228909 20.086826 19.042646
-40.345104 20.105782 17.235857
-54.275433 8.420306 -13.585755
-53.828526 9.037685 -13.742295
-54.356663 7.616858 -13.846875
-53.759758 7.982266 -14.272958
-54.869564 8.282105 -12.906169
-24.989910 -2.157532 15.685019
-24.351748 -1.405682 14.207081
-45.962086 -1.216689 -12.375086
-46.222340 -2.246097 -11.918652
-45.445221 -1.881201 -11.987806
-46.719517 -1.722008 -12.330222
-45.175583 -0.879613 -12.359839
-44.656372 -1.402925 -12.101172
