1230
64450.125000 80069.937500 46747.375000
64443.253906 79835.726562 46913.894531
64524.535156 80082.406250 47097.519531
64550.500000 79971.117188 47436.226562
64591.656250 80193.875000 47593.363281
64618.796875 80396.359375 47682.968750
64598.910156 80235.820312 47865.785156
64597.097656 80371.570312 48139.113281
64578.742187 80003.507812 48120.605469
64569.667969 80225.867188 48424.667969
64545.609375 80090.750000 48715.261719
64502.312500 80251.179688 49013.531250
64529.042969 79971.695312 48939.933594
64460.343750 80165.445312 49327.324219
64503.214844 79996.218750 49146.988281
64397.324219 80357.445312 49551.031250
64422.667969 80065.640625 49598.714844
64374.074219 80007.210938 49873.136719
95611.984375 69986.460938 45335.355469
95792.531250 69919.562500 45648.890625
66350.234375 80030.328125 55389.640625
66386.890625 79801.554688 55395.144531
66594.476562 79918.273438 55380.609375
66542.406250 80177.250000 55374.574219
66709.750000 80352.195312 55367.511719
66801.945312 80090.179688 55372.128906
62382.125000 80476.390625 44172.730469
62911.753906 80697.382812 44414.367188
62669.511719 80330.171875 53624.308594
62518.203125 80508.000000 53431.460938
62532.289062 80504.171875 53695.035156
62824.664063 80267.382812 52986.781250
62708.527344 80430.328125 52907.539062
62643.863281 80412.796875 53148.382812
62683.125000 80312.890625 53389.886719
62671.488281 80405.625000 53917.738281
62456.441406 80636.031250 53859.187500
62568.156250 80635.992188 54113.843750
92456.507812 81949.664062 50878.144531
92403.015625 82051.750000 50614.195312
62852.328125 80363.679688 52757.800781
62975.582031 80189.523438 52828.503906
62699.558594 80549.054688 52728.765625
62880.191406 80507.835938 52538.027344
62699.378906 80709.054688 52528.984375
92631.664062 81830.937500 50475.933594
62878.187500 80206.109375 54075.113281
62981.359375 80243.507812 54324.109375
63107.035156 80268.984375 54524.089844
62934.003906 80494.812500 54495.679688
63153.515625 80445.851562 54700.500000
63370.062500 80341.804688 44826.589844
63233.316406 80569.257812 44645.500000
63532.476563 80577.484375 44855.851562
63088.949219 80471.546875 52341.175781
63280.660156 80464.812500 52136.808594
63117.808594 80633.796875 52168.023438
63371.449219 80430.179688 54884.265625
63748.570312 80577.804688 45048.957031
64081.058594 80550.539062 45478.507812
63861.734375 80416.703125 45260.105469
64010.335938 80155.312500 50993.167969
64000.187500 80420.328125 50840.785156
63887.320312 80368.500000 51163.378906
63750.863281 80454.125000 51417.183594
63783.000000 80603.812500 51252.070312
63589.062500 80539.070312 51657.718750
63707.445312 80006.562500 54955.113281
63540.917969 80203.195312 54911.574219
63748.363281 80243.570312 55078.449219
63959.011719 80284.953125 55205.554688
63810.972656 80475.757812 55189.828125
64150.238281 80347.359375 45730.332031
64452.933594 80307.359375 46532.707031
64368.273438 80046.929688 46477.199219
64310.308594 80443.875000 45993.851562
64184.976562 80910.507812 50089.609375
64124.359375 80752.843750 50327.777344
64228.539062 80610.773438 50075.511719
64113.843750 80335.710938 50576.121094
64060.652344 80602.132812 50575.371094
64018.875000 80520.171875 55287.007812
68685.570312 64464.343750 45718.164062
68819.250000 64433.664062 45983.550781
68916.257812 64234.515625 45793.500000
64540.589844 80369.281250 46847.359375
64597.156250 80415.406250 47167.417969
64618.328125 80419.570312 47453.285156
64579.503906 80214.320312 47349.804688
64649.332031 80632.343750 47615.699219
64626.492188 80527.554688 47880.734375
64620.386719 80691.718750 48123.804688
64579.996094 80566.007812 48403.363281
64539.535156 80426.937500 48702.601562
64441.207031 80482.296875 49275.238281
64321.183594 80494.234375 49803.671875
64362.382813 80236.921875 49775.746094
64420.589844 80459.515625 55376.785156
64635.023438 80259.851562 55391.839844
64418.640625 80199.796875 55343.386719
64902.738281 80313.148438 55427.339844
64994.078125 80572.335938 55437.019531
65192.164062 80347.367188 55440.792969
65092.351563 80056.453125 55433.316406
65277.679687 80620.914062 55435.027344
65816.945312 80542.226562 55413.269531
65834.687500 80252.195312 55424.335937
65522.835938 80385.351562 55435.558594
66071.140625 80403.632812 55400.417969
66559.171875 80615.679688 55368.464844
66855.843750 80556.953125 55362.769531
92686.796875 81818.757812 50205.226562
69150.273438 75819.203125 26835.554688
69423.078125 75542.492188 26829.640625
62320.714844 80729.773438 53371.390625
62125.304688 80940.171875 53297.191406
62204.832031 80850.234375 53574.003906
62598.097656 80724.101562 44243.687500
62535.710938 80731.718750 52728.519531
62565.617188 80582.031250 52933.160156
62291.425781 80801.335938 53145.492188
62449.824219 80629.773438 53160.757812
62395.316406 80765.523438 52941.640625
62294.851562 80787.429688 53774.312500
62379.960938 80666.179688 53620.000000
62787.078125 80436.531250 54223.695312
62479.843750 80857.742188 54271.199219
62258.500000 81041.812500 54196.472656
62401.035156 81070.492188 54408.019531
68268.976562 64371.488281 44600.820312
68245.195312 64568.914063 44893.582031
68473.679688 64341.027344 44981.363281
62772.625000 80936.828125 44268.046875
62972.933594 81000.320312 44336.812500
63198.085938 80917.648438 44481.628906
62978.980469 81087.460938 51931.496094
62809.679688 80981.093750 52162.546875
63051.437500 80837.523438 52062.449219
62821.648438 80735.718750 54567.597656
62999.230469 80693.601562 54713.722656
62847.472656 80910.421875 54717.582031
62634.988281 80920.937500 54518.910156
62692.027344 81108.421875 54716.964844
63480.281250 80863.554688 44679.128906
63439.113281 81165.453125 44498.652344
63409.992187 80696.031250 51799.804688
63480.085937 80832.945312 51605.023437
63241.960938 80923.445312 51812.183594
92494.226562 82032.960938 50041.812500
90159.835938 64220.074219 61156.390625
90416.515625 64169.238281 61028.457031
90235.648438 63972.574219 61018.433594
63261.953125 80676.859375 51985.828125
63863.824219 80650.750000 51043.328125
63943.156250 80757.328125 50799.093750
63824.207031 80916.453125 50989.167969
63698.519531 81068.929688 51144.796875
63739.554688 80823.039062 51206.214844
63793.132813 80881.390625 55286.691406
63872.425781 80673.734375 55269.511719
63673.527344 80687.664062 55184.714844
63437.484375 80686.164062 55049.156250
63523.906250 80950.109375 55192.140625
63980.402344 80778.546875 45191.964844
64216.664062 80865.968750 45467.777344
64270.953125 80661.976562 45729.929688
64276.746094 80801.710938 49832.714844
64366.582031 80697.578125 49532.351562
64319.207031 81036.921875 49607.250000
64212.597656 80584.812500 55351.980469
64448.875000 80798.062500 46020.488281
64447.222656 80531.945312 46286.917969
64553.531250 80613.125000 46598.089844
64653.667969 80927.171875 46641.851562
64727.156250 81087.750000 46920.496094
64639.320312 80725.046875 46954.347656
64656.160156 80682.484375 47317.664062
64695.171875 80917.843750 47521.312500
64664.421875 80859.796875 47847.832031
64643.238281 80951.242188 48112.894531
64638.179688 81169.695312 48262.988281
64602.550781 80876.882812 48348.914062
64544.273438 80807.796875 48670.441406
64489.031250 80620.265625 48983.152344
64477.667969 80953.289062 48990.140625
64402.695312 81095.375000 49282.339844
64426.140625 80794.203125 49245.933594
64369.847656 80846.578125 55405.140625
64883.886719 81002.101562 55439.113281
64667.722656 80916.031250 55434.792969
64853.585938 80774.664062 55437.308594
64688.894531 80586.109375 55421.445312
65070.652344 80824.429688 55436.144531
65336.125000 80905.039062 55425.343750
65565.937500 80711.445312 55420.839844
66067.117188 80670.500000 55392.769531
66311.101562 81041.820312 55374.992188
66548.148438 80910.210938 55366.660156
66307.031250 80784.632812 55377.476562
62021.382812 81039.437500 53576.742188
61832.210938 81231.109375 53567.871094
61748.558594 81387.687500 53821.937500
62093.621094 81268.203125 52597.324219
62050.546875 81144.687500 52849.375000
62203.898438 81068.109375 52730.156250
62147.355469 80953.875000 53800.402344
61934.605469 81114.039062 53359.363281
62139.433594 81043.367188 54001.386719
62050.519531 81219.000000 54129.542969
62840.875000 81235.523438 44188.437500
72671.085938 35001.121094 36048.488281
62361.519531 80913.710938 52733.226562
62336.968750 81086.625000 52532.511719
95427.812500 70134.710938 45133.980469
95495.937500 69887.906250 45034.750000
62527.636719 81293.546875 54714.539062
63154.792969 81217.132812 44328.562500
63391.628906 81467.234375 44316.312500
95276.710938 70101.359375 44864.441406
95217.164062 69859.000000 44544.890625
95405.125000 69798.648438 44796.453125
63538.082031 81239.937500 51281.480469
63342.546875 81437.476562 51391.476562
63355.949219 81138.757812 51544.828125
63141.480469 81378.585938 51598.246094
63030.320312 81304.085938 55067.566406
63306.335938 81366.546875 55224.570312
63287.785156 81138.515625 55143.203125
63267.566406 80909.359375 55037.542969
63969.394531 81094.507812 44965.507812
63717.351563 81123.296875 44711.855469
63958.453125 81380.945312 44754.382812
64013.718750 80901.507812 50559.511719
63971.914062 81200.906250 50548.503906
63896.738281 81044.039062 50775.699219
63528.457031 81503.718750 51169.035156
63684.136719 81307.812500 51051.066406
63486.933594 81197.789062 55251.347656
63702.953125 81123.890625 55308.117188
64105.832031 81093.875000 55393.714844
63910.082031 81036.257812 55351.488281
63879.781250 81266.632812 55372.503906
64184.562500 81358.976562 45027.343750
64345.417969 81122.914062 45477.488281
64190.066406 81102.890625 45239.566406
95035.921875 70212.656250 44589.070312
64234.875000 81057.671875 49887.996094
64236.253906 81340.718750 49818.964844
64177.644531 81679.820312 49955.507812
64138.636719 81432.617188 50083.976562
64085.539063 81049.195312 50320.761719
64044.582031 80804.765625 55344.988281
64392.640625 80975.023438 45709.773438
64494.160156 81270.054688 45653.042969
64642.105469 81426.773438 45876.023438
64685.835938 81314.367188 46175.656250
64546.929688 81134.281250 45931.171875
64586.601563 81032.359375 46171.496094
64563.253906 80830.375000 46348.894531
64668.042969 81105.984375 46401.515625
64742.121094 81222.210938 46653.296875
64778.136719 81285.398438 47175.378906
64712.457031 80982.828125 47217.601562
64716.761719 81143.335938 47709.042969
64730.085937 81365.031250 47855.238281
64689.667969 81345.476562 48081.246094
64682.562500 81143.320312 47977.457031
64662.300781 81465.015625 48282.785156
64583.492188 81064.648438 48511.261719
64595.765625 81318.906250 48521.167969
64538.351562 81444.554688 48782.511719
64534.726562 81141.265625 48748.125000
64378.667969 80907.773438 49416.214844
64409.914062 81420.648438 55436.968750
64688.566406 81411.218750 55442.015625
64523.367188 81156.429688 55436.003906
64748.253906 81194.109375 47442.203125
64800.386719 81466.390625 47424.320312
64760.351562 81358.531250 47627.000000
64935.734375 81536.078125 55435.671875
64915.968750 81268.562500 55437.871094
64728.261719 81150.226562 55441.683594
65687.718750 81276.140625 55401.417969
66000.179688 81363.570312 55387.000000
65887.929688 81088.765625 55393.906250
66673.687500 81652.843750 55367.167969
66771.000000 81374.359375 55360.605469
66495.945312 81453.023438 55368.984375
72069.140625 63936.367188 54425.484375
71838.085938 64204.082031 54657.484375
72149.992188 64012.000000 54797.742188
61366.945312 81686.187500 53239.734375
61407.371094 81686.507812 52984.500000
61234.617188 81843.960938 53093.562500
61472.437500 81606.593750 53599.171875
61395.425781 81746.000000 53765.046875
61566.804687 81577.460938 53807.656250
61674.031250 81703.492188 52491.195312
61477.765625 81734.562500 52704.703125
61673.300781 81555.695312 52696.660156
61868.648438 81499.632812 52547.042969
61780.792969 81279.937500 53262.742188
61625.156250 81439.585938 53518.679688
61949.921875 81679.460938 54512.949219
61947.335938 81459.945312 54291.425781
61778.250000 81680.773438 54334.531250
62147.550781 81905.687500 51957.640625
62117.300781 81696.843750 52136.402344
62336.636719 81711.914062 51977.753906
62309.542969 81504.742188 52153.554688
62518.835938 81511.796875 51991.050781
63095.324219 81521.890625 44164.621094
92940.812500 81668.132812 49482.234375
92900.343750 81689.437500 49686.625000
92762.414062 81815.726562 49576.144531
62940.789063 81565.500000 51648.480469
63138.308594 81623.640625 51473.375000
62744.335938 81311.312500 54889.003906
62794.234375 81565.265625 55059.683594
62738.339844 81829.085938 55150.675781
62926.164063 81727.398438 55193.421875
63337.082031 81767.375000 44134.109375
70546.210938 64150.519531 51510.171875
70763.820312 64005.156250 51790.710938
70772.718750 63861.429688 51447.058594
63084.835938 81555.539062 55194.882812
63128.253906 81782.070312 55274.488281
71004.109375 63431.914063 51037.507812
70808.101562 63711.710938 51162.250000
70992.164062 63577.613281 51397.652344
50647.324219 80960.882812 34809.753906
50818.660156 81136.921875 34839.878906
50791.949219 80783.750000 34893.390625
63687.468750 81422.828125 44510.164062
63965.253906 81715.273438 44534.242188
63940.074219 81529.390625 50528.812500
63828.953125 81339.023438 50795.707031
63833.648438 81528.929688 55388.421875
63595.691406 81394.242188 55325.000000
63601.722656 81672.812500 55363.863281
64190.503906 81615.226562 44831.015625
64353.816406 81590.570312 45082.132812
64232.296875 81864.406250 44693.714844
64396.921875 81396.226562 45336.351562
64340.054688 81344.898438 49480.132812
64293.230469 81627.195312 49621.644531
64266.394531 81926.046875 49725.582031
64156.664062 81189.695312 50086.078125
64065.167969 81605.289062 50243.500000
64060.050781 81335.976562 50303.707031
64016.984375 81694.164062 55417.488281
64283.363281 81667.593750 55433.789062
64117.742188 81411.242188 55415.472656
64597.054688 81562.890625 45605.460938
64803.183594 81566.976562 46354.605469
64749.054687 81338.445312 46440.753906
69756.539062 60239.011719 41530.714844
69614.718750 60412.625000 41394.195312
64727.207031 81567.140625 48028.636719
64617.281250 81623.515625 48536.382812
64550.292969 81789.898438 48829.011719
64470.871094 81257.007812 49012.949219
64466.843750 81544.656250 49051.527344
64411.667969 81367.007812 49228.843750
64386.265625 81595.718750 49323.691406
64435.871094 81895.703125 55438.914062
64555.046875 81665.000000 55441.390625
64817.835938 81502.671875 46630.464844
64890.855469 81796.851562 46563.828125
64880.691406 81712.445312 46873.382812
64804.230469 81397.156250 46901.238281
64845.425781 81590.835938 47161.035156
64789.605469 81614.218750 47717.425781
64854.257812 81936.765625 47686.511719
64781.984375 81851.093750 47973.285156
64774.683594 81663.484375 55440.136719
64956.515625 81782.406250 55433.136719
65321.125000 81678.226562 55416.699219
65179.078125 81415.539062 55425.238281
65114.855469 81665.218750 55426.859375
65414.597656 81877.718750 55413.046875
65602.625000 81968.476562 55407.285156
65560.914062 81726.812500 55405.882812
66250.273438 81541.562500 55378.062500
66441.726562 81681.875000 55373.945312
61499.421875 82087.218750 52236.003906
61308.378906 82090.968750 52424.292969
61486.964844 81901.453125 52451.324219
61272.566406 81878.796875 52834.953125
61147.207031 82096.171875 52661.195312
61327.593750 81934.359375 52612.988281
60989.636719 82098.664062 53460.363281
61149.464844 81934.648438 53477.378906
61072.050781 82006.328125 53235.160156
61326.710938 81747.218750 53499.015625
61223.035156 81911.492188 53702.019531
61075.359375 82045.570312 53638.578125
61100.726562 82105.210938 53864.429688
61493.875000 81756.578125 54013.402344
61602.058594 81800.976562 54249.593750
61721.187500 82088.921875 52070.062500
61692.960938 81890.085938 52270.589844
61919.132813 81892.726562 52106.273438
61725.925781 81890.937500 54482.003906
62184.058594 82111.867188 51800.945313
62371.718750 81926.218750 51817.058594
62546.496094 81504.242188 54872.003906
62366.128906 81666.484375 54849.050781
62612.578125 82306.539062 51522.167969
62642.789062 82109.320312 51581.449219
62809.726562 82178.898438 51476.582031
62587.359375 81938.804688 51686.992188
62549.941406 81726.875000 51827.468750
62786.675781 81962.750000 51563.457031
62984.250000 82014.984375 51432.531250
62919.429688 82183.726562 55304.761719
62750.496094 82030.179688 55223.148438
62655.839844 82222.101562 55242.402344
62925.105469 81926.000000 55251.414062
63557.058594 82011.656250 44086.777344
63635.519531 81726.281250 44297.988281
92765.125000 81909.117188 48640.148438
63859.078125 82009.546875 44257.101562
63710.203125 81774.023438 50861.128906
63554.480469 81747.843750 51056.535156
63689.906250 81545.734375 50949.417969
92751.765625 81899.804688 48870.753906
92915.500000 81721.609375 49026.539062
63528.464844 82124.593750 55389.753906
63797.285156 82165.203125 55414.441406
63665.953125 81911.835938 55391.050781
63801.765625 81741.078125 55398.960938
64398.117188 81839.476562 44948.539062
64412.515625 82149.773438 44734.742188
64362.250000 82187.945312 49516.828125
64248.363281 82199.390625 49830.746094
64149.937500 82245.031250 50086.050781
64163.425781 81988.070312 50006.843750
64089.031250 81828.585938 50175.515625
63904.351563 82108.953125 50541.937500
63849.484375 81805.687500 50647.464844
63985.089844 81820.015625 50400.921875
63916.515625 81919.296875 55415.531250
64079.960938 82127.257812 55429.808594
64171.246094 81898.359375 55430.734375
64587.593750 82099.460938 45087.929688
64551.804688 81772.710938 45302.187500
64722.562500 81847.031250 45647.433594
64718.488281 81664.593750 45829.253906
64762.562500 82077.578125 48220.449219
64847.679688 82470.296875 48185.757812
64734.093750 82264.226562 48439.484375
64657.644531 81972.328125 48539.808594
64646.273438 82277.367188 48726.257812
64595.363281 82033.257812 48769.773438
68567.367188 63786.375000 44236.527344
68417.781250 64074.796875 44406.839844
68653.648438 63889.398437 44573.648438
64453.984375 81825.015625 49143.703125
64309.613281 82086.156250 55437.832031
64553.914062 82139.070312 55441.539062
64733.316406 81906.843750 55438.695312
64819.031250 81869.304688 45946.824219
64764.519531 81614.406250 46071.632812
64870.042969 81845.304688 46249.855469
64923.375000 81937.382812 47157.730469
64911.402344 82021.742188 47442.027344
64857.175781 81759.015625 47432.457031
64851.515625 82167.734375 47922.113281
64982.171875 82001.781250 55432.343750
65193.039062 81905.515625 55423.480469
65403.574219 82094.031250 55417.859375
65642.070312 82242.742188 55414.535156
66246.226562 81810.328125 55382.679688
95247.750000 69959.257812 60568.535156
95028.867188 70064.671875 60733.214844
67001.695312 82050.578125 55374.355469
67105.890625 81810.132812 55364.167969
66840.812500 81858.125000 55369.125000
92865.546875 81817.695312 48428.152344
92914.843750 81744.632812 48717.453125
60927.210938 82183.929688 53046.652344
60977.113281 82199.218750 52814.750000
61098.449219 82026.859375 52950.941406
60757.007812 82393.765625 53663.855469
60938.417969 82195.484375 53660.949219
60828.128906 82265.937500 53435.738281
92770.187500 81962.109375 48013.816406
92868.265625 81828.515625 48169.593750
92728.523438 81993.515625 48250.882812
61015.156250 82470.562500 54279.722656
61041.695312 82289.117188 54079.656250
61193.468750 82480.015625 54490.828125
61375.226562 82296.476562 54501.226563
61201.078125 82289.117188 54302.859375
61765.257812 82287.671875 51890.125000
61954.636719 82095.164062 51927.933594
62002.601562 82288.312500 51773.785156
62209.507812 82296.125000 51683.226562
62082.183594 82472.687500 51638.687500
62364.097656 82454.609375 51555.363281
62423.703125 82162.554688 51662.378906
62112.820312 82490.359375 55137.003906
62007.132812 82679.632812 55166.812500
62802.734375 82386.875000 51422.488281
62401.882812 82220.429688 55145.714844
62522.882812 82476.820312 55271.562500
63033.375000 82292.031250 51337.207031
63161.222656 82519.039062 51240.679688
62917.515625 82603.382812 51333.601562
63165.281250 82264.460938 55361.035156
63017.554688 82397.085938 55359.273438
63449.546875 82273.187500 43881.332031
63571.871094 82170.367188 50964.753906
63437.882813 81987.664062 51117.933594
63604.980469 81937.984375 50960.261719
63335.335938 82301.828125 51153.300781
63320.890625 82127.718750 55366.593750
92838.367188 81897.578125 47485.667969
57935.746094 87683.414062 42820.507812
63623.632812 82326.070312 55411.089844
63804.980469 82441.242188 55428.214844
64314.210938 82383.742188 44420.351562
64531.359375 82507.882812 44655.863281
92809.070312 81928.203125 47750.847656
92955.257812 81731.039062 47922.261719
64053.242187 82312.343750 44196.113281
64148.437500 82062.093750 44463.816406
64324.109375 82442.625000 49716.644531
64279.097656 82633.218750 49918.617188
64231.917969 82405.234375 49938.402344
64055.761719 82051.093750 50259.375000
64040.957031 82328.671875 50331.996094
64031.605469 82582.179688 55446.523438
64308.218750 82376.804688 55445.812500
64000.246094 82335.750000 55432.464844
64608.371094 82357.031250 44916.746094
64763.000000 82419.843750 45213.785156
64735.351562 82101.984375 45431.625000
64757.019531 82535.203125 48532.160156
64677.804688 82612.210938 48817.214844
64531.808594 82102.132812 48992.457031
64475.199219 82307.843750 49237.078125
64432.472656 82504.593750 49450.367188
64526.414062 82587.382812 55461.175781
64667.593750 82393.382812 55449.792969
64879.355469 82381.312500 45571.628906
64852.464844 82118.835938 45770.156250
64974.968750 82401.445312 45910.140625
65049.324219 82435.789062 46307.125000
64929.777344 82127.156250 46107.058594
65122.714844 82602.453125 46658.546875
65036.636719 82318.046875 46641.148438
64967.640625 82059.945312 46818.292969
64964.449219 82097.484375 46449.750000
93666.632812 79725.257812 53766.261719
64985.398438 82262.164062 47295.320312
65007.097656 82510.531250 47541.910156
64934.843750 82465.031250 47835.445312
64925.023438 82224.921875 47623.855469
65294.796875 82506.531250 55439.714844
65410.542969 82320.875000 55425.679688
60923.539062 82783.421875 52095.355469
60690.226563 82862.289062 52266.562500
60854.742188 82631.367188 52317.957031
92866.750000 81860.140625 47234.601562
92953.367188 81735.289062 47384.199219
60505.382812 82660.484375 52877.437500
60578.011719 82542.945312 53538.496094
60589.750000 82610.898438 53760.445312
60568.128906 82745.617188 53971.941406
60642.722656 82819.968750 54195.140625
61052.988281 82586.515625 52148.871094
61404.363281 82749.414062 51787.000000
61300.953125 82507.562500 52017.492188
61579.656250 82496.867188 51848.070312
61384.167969 83034.445312 51650.667969
61580.484375 82876.648438 51634.359375
61571.015625 82664.687500 54935.980469
61346.773438 82721.484375 54825.960938
61391.039062 82907.890625 54973.906250
61950.882812 83084.906250 51448.449219
61798.429688 82865.476562 51558.476563
62010.539063 82838.718750 51503.308594
61788.359375 82727.585938 55090.445312
61927.164062 82664.429688 51598.441406
62168.910156 82676.882812 51521.824219
62424.515625 82734.062500 51441.425781
62689.183594 82810.882812 51361.546875
62635.679688 82549.031250 51438.660156
94975.070312 70004.375000 44282.847656
62733.410156 82682.742188 55359.484375
62610.867188 82958.710938 55388.816406
62958.910156 82895.304688 55415.292969
63143.476562 82757.023438 51229.980469
62934.390625 82897.718750 51288.171875
63146.316406 83008.460938 51214.964844
63174.320312 82721.398438 55414.085938
62986.480469 82604.843750 55383.238281
63193.460938 82500.734375 55392.613281
63383.609375 82650.976562 55420.652344
63787.593750 82939.093750 50807.972656
63630.968750 83093.828125 50969.210938
63589.667969 82813.234375 55443.375000
63786.488281 82912.218750 55458.484375
63798.710938 82694.359375 55443.421875
63600.171875 82548.867188 55424.148438
64376.699219 82878.265625 44095.332031
64231.324219 82604.250000 44147.718750
64183.367188 82787.468750 43933.160156
92509.476562 81991.929688 44279.113281
92638.960938 81793.617188 44437.781250
92551.257812 82018.351562 44549.214844
64354.855469 82907.710938 49885.750000
64207.585938 82817.171875 50171.238281
64161.664062 82506.875000 50139.277344
64082.175781 82869.851562 50423.589844
64186.773438 83079.914062 50346.007812
63990.375000 82851.328125 55462.210938
64576.769531 83015.757812 44310.750000
64452.992188 82703.539062 44368.449219
64648.667969 82839.609375 44614.410156
64710.746094 82642.156250 44907.367188
64575.410156 82429.750000 49009.648438
64397.062500 82715.914062 49659.945312
64544.652344 83003.062500 55484.386719
64589.789062 82777.109375 55473.789062
64302.285156 82791.851562 55469.128906
64871.281250 82776.289062 45172.027344
64908.609375 82618.828125 45417.671875
65012.355469 82883.945312 45451.187500
65003.460937 82653.554688 45686.445312
65129.625000 82946.500000 45762.320312
65097.828125 82707.742188 46017.023438
65096.617188 82789.000000 47474.656250
65076.714844 82589.718750 47250.632812
65120.109375 83003.171875 47668.757812
65023.472656 82734.898438 47743.449219
65033.628906 82945.578125 47936.683594
65031.269531 83167.882812 48174.316406
64697.843750 82857.023438 48916.546875
64789.031250 82854.039062 48652.046875
64768.531250 83080.078125 48882.933594
64847.824219 82738.757812 48387.402344
64809.433594 82899.796875 55477.007813
65049.585938 82891.070312 55469.652344
64962.464844 82715.460938 55465.828125
64760.285156 82632.484375 55464.164062
65178.871094 82800.726562 46361.187500
65240.457031 82931.726562 46696.562500
65051.003906 82391.187500 46960.703125
65266.707031 83066.929688 47048.968750
65154.976562 82737.718750 46976.566406
65158.968750 82845.687500 47230.425781
71016.757812 63066.531250 49249.515625
70799.351562 63317.820312 49318.097656
70965.148438 63166.238281 49589.656250
66227.335938 82990.125000 55401.960937
66381.710938 82763.625000 55404.085938
66120.773438 82746.125000 55414.160156
66262.562500 82524.359375 55405.480469
66684.328125 82779.109375 55395.281250
66909.765625 82672.312500 55395.484375
66774.843750 82500.765625 55394.054688
60386.667969 83312.906250 52160.812500
60156.500000 83524.406250 52203.992188
60230.488281 83252.109375 52406.628906
92663.234375 81847.843750 44706.757812
60290.726562 82852.593750 53398.105469
60375.187500 82741.585938 53138.734375
60164.726563 82996.976562 53220.546875
59976.285156 83245.851562 53320.679688
59876.390625 83416.492188 53584.726562
60080.941406 83131.875000 53500.800781
60404.332031 83038.414062 54108.734375
60731.128906 83173.929688 54646.378906
60621.187500 83447.640625 54766.281250
60882.019531 83298.296875 54867.488281
61112.585938 83121.070312 51739.750000
60826.488281 83194.906250 51879.621094
61004.484375 82947.734375 51905.445312
92602.460938 81732.273438 44116.644531
61006.996094 82661.179688 54474.636719
60986.417969 82867.671875 54639.835938
61188.621094 82679.515625 54665.902344
61017.996094 83048.851562 54809.343750
61204.355469 82916.921875 51795.996094
61182.660156 83114.820312 54965.187500
61722.410156 83306.359375 51444.292969
61653.343750 83065.898438 51535.828125
74102.765625 63298.339844 60297.218750
74109.968750 63291.156250 60579.152344
74245.140625 63173.222656 60410.667969
62160.675781 83052.414062 55328.019531
62132.480469 82840.578125 55267.175781
61909.703125 82936.937500 55222.910156
62251.503906 83203.750000 51363.054688
62213.730469 82921.562500 51432.597656
62476.531250 83004.320312 51364.453125
62738.289062 83078.710938 51308.738281
62537.558594 83282.359375 51310.796875
94771.429688 70199.625000 44108.648438
62801.835938 83134.867188 55433.589844
62831.789062 83356.851562 51270.921875
62955.160156 83122.578125 51262.929688
62814.453125 83338.773438 55458.308594
63319.394531 82870.570312 51143.085938
63648.003906 83105.234375 55467.777344
64323.890625 83107.609375 50093.320312
64174.871094 83304.562500 50498.359375
64321.851562 83525.171875 50421.234375
64166.761719 83516.578125 50646.246094
64008.597656 83075.445312 50606.687500
63913.421875 83073.726562 55474.566406
64081.519531 83239.195312 55487.074219
64119.250000 83024.195312 55478.343750
64693.941406 83343.507812 44188.835938
64755.476562 83253.539062 49070.925781
64689.378906 83326.062500 49333.554688
64656.859375 83017.757812 49153.976562
64522.460938 82800.390625 49371.832031
64579.156250 83079.531250 49417.710938
64565.417969 83249.867188 49600.648438
64476.218750 82990.617188 49628.753906
64309.695312 83127.359375 55486.875000
64784.964844 83196.921875 44573.644531
64823.679688 82973.117188 44883.152344
65008.785156 83135.937500 45167.925781
64726.781250 83147.132812 55483.582031
65156.710938 83183.765625 45518.132812
65274.386719 83237.812500 45838.074219
65229.304687 83017.648438 46086.503906
65368.937500 83301.773438 46150.566406
65429.242187 83364.617188 46418.386719
65310.183594 83114.125000 46405.953125
65391.531250 83346.296875 47030.445312
65320.542969 83297.007812 47289.000000
65236.109375 83265.265625 47581.347656
65199.085938 83044.953125 47385.175781
65142.062500 83226.046875 47868.789062
65169.699219 83462.554688 48065.410156
65673.351562 83373.351562 55397.531250
65528.949219 83112.218750 55438.015625
65435.832031 83375.335938 55420.597656
59753.785156 83590.992188 52916.000000
59364.964844 84073.632812 52882.960938
60287.562500 83583.765625 52034.335938
60256.769531 83516.320312 54447.687500
60414.230469 83643.148438 54719.093750
60861.179688 83681.781250 51603.488281
60975.437500 83381.429688 51682.011719
61128.613281 83550.007812 51544.019531
60674.656250 83604.546875 54904.269531
60760.566406 83830.171875 55061.296875
61268.972656 83769.289062 51433.367188
61471.378906 83491.406250 51458.769531
61127.636719 83732.773438 55212.453125
61358.406250 83488.648438 55233.972656
62015.058594 83681.023438 51315.171875
61779.222656 83785.820312 51325.445313
61761.945312 83565.867188 51372.761719
61735.011719 83099.070312 55223.289062
62005.738281 83396.656250 51365.925781
62315.652344 83529.179688 51306.765625
62245.414062 83849.460938 51284.914062
62270.890625 83285.687500 55395.457031
62384.718750 83096.257812 55381.347656
62533.121094 83765.320312 51281.195312
62605.140625 83520.718750 51283.289062
62804.464844 83669.046875 51272.609375
63065.652344 83556.125000 51244.535156
62911.066406 83748.507812 55497.394531
62965.109375 83506.078125 55480.804687
63121.941406 83271.554688 51217.722656
63352.328125 83462.609375 51171.765625
63591.613281 83328.304688 51042.492188
63387.859375 83123.625000 51114.417969
63195.644531 83465.304688 55483.503906
63434.835938 83631.617188 55495.242188
63389.609375 83292.085938 55474.332031
63317.984375 82955.023438 55443.492188
63063.011719 83220.765625 55457.542969
64036.464844 83328.125000 50691.316406
63981.691406 83500.828125 50836.789062
63682.167969 83413.718750 55486.675781
64000.242188 83497.781250 55487.023438
63863.578125 83270.046875 55483.769531
64888.511719 83644.398438 44216.175781
64870.023438 83474.218750 44439.980469
64809.929688 83686.585938 49395.316406
64703.675781 83728.453125 49755.429688
64660.640625 83485.804688 49577.636719
64433.605469 83356.742188 50039.812500
64556.378906 83433.406250 49805.187500
64545.453125 83605.023438 50021.023438
64272.605469 83642.320312 55470.398438
64473.800781 83728.804688 55443.597656
64501.890625 83521.570312 55471.742188
64282.531250 83391.460938 55487.933594
64519.675781 83269.132812 55487.246094
65037.171875 83699.328125 44495.355469
64930.972656 83246.835938 44865.367188
64974.539062 83466.312500 44699.300781
65090.296875 83449.562500 44992.765625
64715.835938 83673.992188 55426.867188
64801.425781 83922.671875 55341.992188
64976.660156 83744.875000 55379.988281
64740.101562 83384.179688 55469.875000
65286.441406 83690.890625 45110.335938
65386.253906 83680.585938 45405.523438
65204.812500 83434.867188 45300.082031
65495.398438 83722.906250 45687.753906
65324.265625 83462.437500 45609.960938
65432.492188 83513.429688 45920.113281
65513.105469 83567.250000 46238.000000
65535.105469 83575.500000 46566.414062
65388.316406 83276.734375 46723.847656
65508.933594 83561.046875 46892.726562
65453.324219 83547.570312 47196.410156
65508.890625 83770.742188 47396.984375
65368.679688 83518.750000 47487.585938
65411.585938 83739.984375 47686.976562
65272.121094 83491.367188 47777.597656
65070.621094 83447.968750 48345.265625
65309.539063 83718.781250 47971.640625
65215.437500 83804.031250 55327.941406
65345.667969 83598.398438 55379.425781
65551.000000 83560.679688 55367.539062
92081.179688 82207.703125 53356.101562
92214.187500 81937.820312 53494.691406
65754.539062 83619.140625 55323.203125
65919.140625 83412.132812 55364.367188
66252.882812 83697.296875 55226.054688
66419.984375 83495.203125 55292.082031
66168.273438 83452.750000 55327.792969
66670.101562 83544.867188 55259.042969
66507.296875 83729.023438 55184.882812
66737.195312 83750.921875 55158.347656
92338.148438 81737.773438 53381.304688
59838.886719 84167.914062 52022.625000
60008.640625 84088.351562 51939.765625
59951.019531 83727.718750 52258.996094
60081.484375 83771.710938 52077.644531
60537.937500 83851.328125 51714.011719
60828.683594 83974.460938 51524.644531
60453.359375 83876.867188 54903.589844
60682.960938 84280.007812 55186.167969
61030.757812 83789.609375 51494.164062
60902.769531 84145.390625 55236.289062
61351.464844 84026.695312 51362.937500
61159.703125 84333.976562 51360.757812
61088.933594 84026.992188 51423.933594
61556.179688 83742.257812 51374.214844
61409.343750 83691.273438 55316.371094
61756.285156 84247.437500 51285.437500
61636.578125 84002.984375 51316.800781
61936.628906 83979.609375 51288.824219
61641.824219 83836.921875 55402.269531
63258.480469 83710.171875 51238.566406
63045.933594 83866.539062 51281.746094
62742.867188 83914.203125 55504.156250
63159.382812 84124.953125 51331.500000
63365.582031 83949.914062 51280.378906
63649.703125 83906.445312 51216.558594
63483.476563 83711.718750 51193.816406
63137.671875 83718.921875 55499.167969
63770.972656 83502.203125 50996.324219
63579.546875 83540.015625 51109.546875
63710.804688 83702.625000 51110.730469
63853.773438 83864.304688 51122.320312
63597.316406 84127.664062 51321.539063
63576.218750 83929.312500 55494.632812
92248.390625 81911.937500 53221.054688
94810.656250 70114.648438 60891.175781
94901.695312 69884.195312 60908.941406
94641.250000 69918.125000 61055.132813
64313.507812 83930.156250 50815.410156
64321.589844 84114.914062 51017.125000
64086.699219 83937.867188 51031.769531
63843.699219 83987.914062 55461.734375
63884.726562 84230.554688 55405.097656
64124.589844 84108.578125 55385.242188
64782.671875 83970.117188 49886.691406
64655.062500 83825.796875 50021.394531
64650.843750 84117.398438 55282.996094
64873.519531 84134.710938 55232.500000
64054.390625 83802.640625 55462.160156
64316.945312 83883.210938 55422.859375
64918.906250 83801.843750 43997.980469
65042.648438 83930.851562 49018.519531
64973.773437 83650.171875 48858.996094
65139.890625 83927.156250 48734.972656
64917.140625 83740.312500 49130.199219
64948.425781 84088.750000 49596.285156
64957.746094 83923.710938 49268.082031
64884.417969 84152.562500 49925.906250
64745.355469 84047.820312 50153.914062
65034.191406 83970.312500 55287.300781
65060.664062 84159.335938 55183.628906
65100.277344 83928.109375 44215.207031
65170.960938 83707.140625 44800.484375
65411.023438 83967.937500 44915.175781
65548.250000 83979.398438 47610.406250
65205.132813 83702.210938 48255.195312
65352.992188 83946.539062 48159.179688
65247.816406 83938.062500 48445.062500
65474.777344 83896.640625 45237.839844
65640.273438 84075.117188 45376.027344
65537.429688 83877.125000 45483.718750
65677.312500 84019.335938 45705.753906
65598.718750 83792.726562 45997.664062
65762.187500 84079.562500 46062.554688
65674.382812 83870.585938 46365.406250
65814.718750 84153.640625 46329.007812
65788.242188 84118.640625 46611.207031
65750.031250 84126.015625 46986.367188
65650.390625 83838.648438 46751.058594
65594.007812 83809.726562 47089.101562
65647.914062 84036.343750 47324.519531
65832.835938 83865.039062 55204.210938
65936.890625 84069.437500 55055.769531
66081.640625 83887.406250 55151.968750
66140.179688 84057.257812 55025.300781
66003.132812 83658.156250 55276.128906
66726.859375 84079.929688 54901.226563
66628.304688 83918.234375 55057.390625
66341.148438 83934.726562 55078.242187
66954.109375 84117.609375 54845.781250
67186.695312 84098.773438 54878.648438
60639.539062 84178.296875 51560.859375
60812.507812 84454.359375 55304.800781
61015.257812 84427.398438 55365.117188
61453.621094 84303.617188 51312.195312
61292.683594 84629.562500 51313.136719
61590.382812 84568.703125 51286.957031
62002.632812 84219.546875 51273.605469
61735.023438 84244.656250 55489.183594
62032.140625 84361.804688 55526.519531
62339.496094 84307.742188 55530.796875
62533.480469 84430.117188 55533.664062
62546.871094 84114.359375 55516.648438
63001.035156 84287.195312 51358.804688
62836.601563 84434.398438 51372.765625
62759.507812 84202.960938 51319.785156
63085.140625 84494.140625 51430.859375
63025.199219 84418.656250 55505.367188
62797.445312 84245.492188 55519.808594
63248.078125 84336.804688 51399.890625
63253.980469 84270.921875 55497.625000
63029.347656 84039.265625 55510.011719
76126.796875 75549.148438 31392.832031
76107.304688 75869.179688 31476.326172
63510.980469 84336.015625 51419.453125
63783.312500 84294.054688 51396.242188
63682.726562 84495.265625 51527.476562
63750.390625 84431.351562 55380.046875
63660.273437 84190.156250 55461.492188
63452.156250 84153.835938 55493.414063
63311.433594 83953.835938 55506.015625
64201.972656 84342.906250 51360.117188
64146.210937 84168.820312 51200.089844
64357.566406 84276.726562 51197.699219
64115.968750 84587.851562 51674.511719
64266.648438 84489.515625 51534.250000
64345.769531 84614.132812 51730.406250
64516.699219 84315.273438 55205.042969
64299.886719 84306.398438 55266.203125
64534.367188 84368.453125 51208.496094
64516.515625 84264.195312 51031.949219
64709.757813 84410.187500 51089.578125
64412.699219 84106.460938 55334.054688
65185.507812 84392.382812 49397.644531
65147.281250 84442.679688 49697.656250
64802.128906 84231.812500 50400.062500
64642.996094 84039.187500 50413.851562
94157.617188 69952.804688 61251.007812
64843.355469 84359.335938 50638.734375
64690.695312 84303.703125 50850.988281
64661.347656 84171.187500 50621.578125
93642.906250 69977.968750 61407.925781
65032.437500 84459.578125 54943.023438
65159.195312 84298.070312 55055.996094
64735.570312 84320.625000 55144.644531
65445.117188 84362.398438 44133.265625
65348.027344 84170.804688 44325.507812
65253.011719 84198.031250 44001.726562
65406.992188 84179.968750 48341.082031
65470.644531 84418.195312 48526.058594
65303.503906 84176.898438 48630.855469
65371.949219 84414.437500 48818.269531
65200.464844 84170.703125 48916.929688
65096.375000 84155.226562 49212.140625
65272.117188 84399.664062 49101.972656
65352.468750 84263.546875 55034.742188
65557.578125 84311.304688 54929.199219
65266.679688 84067.710938 55192.664062
65558.054688 84383.265625 44396.117188
65483.445312 84191.109375 44633.234375
65624.812500 84241.757812 44919.964844
65815.109375 84491.312500 44973.929688
65735.781250 84284.992188 45197.277344
65905.609375 84531.007812 45291.660156
65581.296875 84092.023438 45129.218750
65966.921875 84562.882812 45620.511719
65860.625000 84314.070312 45831.027344
65805.195312 84294.734375 45501.660156
65901.601562 84352.054688 46154.093750
65996.632812 84629.656250 46636.671875
65882.960938 84379.062500 46785.285156
65906.960938 84371.625000 46465.378906
65856.765625 84407.968750 47062.445312
65957.789062 84637.125000 46968.718750
65886.468750 84590.828125 47281.691406
65773.140625 84312.882812 47299.324219
65785.718750 84492.195312 47568.542969
65663.812500 84396.726562 47875.269531
65670.781250 84227.546875 47579.546875
65571.351562 84146.937500 47800.136719
65503.972656 84174.414062 48048.910156
65569.335938 84417.382812 48219.765625
65728.195312 84400.156250 54763.535156
65825.070312 84253.960938 54913.535156
93391.343750 70173.851562 61487.824219
65694.601562 84085.476562 55091.203125
65972.460938 84375.796875 54686.914062
66068.710938 84207.734375 54895.011719
93111.750000 70048.695312 61591.726562
66745.757812 84370.765625 54433.761719
66510.960938 84327.960938 54575.214844
66512.281250 84429.695312 54311.429688
92162.523438 82083.015625 53030.906250
66500.835938 84060.828125 54953.613281
66515.835938 84195.156250 54798.078125
66886.664062 84511.554688 54024.031250
66728.578125 84449.398438 54215.496094
66984.070312 84339.890625 54500.882812
66931.203125 84429.914062 54282.812500
66791.828125 84241.250000 54684.007812
67082.210938 84234.492188 54696.019531
61006.480469 84903.054688 51336.929688
60909.406250 84893.398438 51352.683594
61009.992187 84673.945312 51355.250000
60820.363281 84669.484375 51400.492188
60885.125000 84346.750000 51429.390625
61418.507812 84413.625000 55465.203125
61963.324219 84859.742188 51321.679688
61729.164062 84809.148438 51295.898438
61972.949219 84649.406250 55552.160156
62397.585938 84604.867188 51336.550781
62665.941406 84616.031250 51386.511719
62479.363281 84826.648438 51404.050781
62231.726562 85016.093750 55531.148438
62400.675781 84772.914062 55537.035156
62218.015625 84586.273438 55545.816406
62741.867188 84853.195312 51484.843750
63139.636719 84675.015625 51517.414062
62972.621094 84758.718750 55468.734375
92509.812500 81656.968750 52464.597656
92268.125000 82029.421875 52024.750000
63866.812500 84632.109375 51682.105469
63752.042969 84804.914062 51831.992188
63867.363281 84901.578125 52024.363281
99182.835938 61309.437500 57558.484375
99064.750000 61336.820312 57315.257812
99155.070312 61091.074219 57349.015625
63836.683594 84618.054688 55272.394531
63628.039062 84658.554688 55333.816406
63477.339844 84438.351562 55444.988281
64466.773438 84700.742188 51943.867187
64367.789062 84804.335938 52172.054688
64076.976562 84869.804688 54956.085937
64176.589844 84674.390625 55076.640625
63989.023438 84696.578125 55153.390625
64508.117188 84533.039062 51553.761719
64424.132812 84414.726562 51368.300781
64683.023438 84492.414062 51355.207031
64610.253906 84622.515625 51752.289062
64726.480469 84577.265625 51579.355469
64870.171875 84639.562500 51747.679688
64744.781250 84680.804688 51953.128906
64622.023438 84737.078125 52127.558594
64868.359375 84716.671875 52173.238281
64297.019531 84923.406250 52444.183594
64992.554688 84729.023438 52410.468750
64571.128906 84662.210938 54899.742188
64605.632813 84481.375000 55062.242188
92826.289062 69914.593750 61694.593750
92532.390625 70115.492188 61846.949219
64344.257812 84769.195312 54900.539062
64513.988281 84843.625000 54689.773438
64935.000000 84552.929688 51191.570312
64928.570313 84491.546875 50880.863281
64975.390625 84614.343750 51492.324219
65150.328125 84676.671875 51751.070312
65018.363281 84682.273438 51967.367188
65441.292969 84697.960938 52246.191406
65157.230469 84698.382812 52202.140625
65303.242187 84700.226562 51993.769531
65282.011719 84693.156250 52447.082031
64836.574219 84787.148438 52635.125000
65122.148438 84719.601562 52645.328125
64977.726563 84767.750000 52846.167969
65061.851562 84764.445312 53078.742187
64859.984375 84822.273438 53025.269531
64855.574219 84878.734375 54027.984375
65066.019531 84805.445312 53949.320312
65046.433594 84798.507812 54172.828125
64842.652344 84853.789062 54296.378906
65028.300781 84769.710938 54379.167969
64803.789063 84525.906250 54947.953125
65124.734375 84669.835938 54568.726562
64975.472656 84620.273438 54757.097656
64892.789062 84767.804688 54530.355469
92193.484375 70123.679688 62005.437500
92298.515625 69826.054688 61908.636719
65540.734375 84648.179688 48716.855469
65459.789062 84658.289062 49024.636719
65485.585938 84792.195312 49307.105469
65533.527344 84904.367188 49571.648438
65336.609375 84656.406250 49544.843750
65273.816406 84639.421875 49805.656250
65155.042969 84532.515625 50011.464844
65327.968750 84726.929688 50002.671875
65426.746094 84811.710938 49803.761719
65511.574219 84911.343750 50096.824219
65096.984375 84521.398438 50273.832031
65111.281250 84571.000000 50472.480469
65333.835938 84752.640625 50899.218750
65149.777344 84645.937500 51018.414062
65426.890625 84821.375000 50655.421875
65443.378906 84782.992188 51307.238281
65338.261719 84748.554688 51106.187500
65188.605469 84674.132812 51281.746094
65439.281250 84733.710938 51783.730469
65436.734375 84670.648438 52916.996094
65377.722656 84679.054688 52694.164062
65613.507812 84658.140625 52791.230469
65238.796875 84745.703125 53583.488281
65136.765625 84763.859375 53352.875000
65255.402344 84700.945312 54336.605469
65247.761719 84740.492188 54060.996094
65472.941406 84664.031250 54164.878906
65341.675781 84600.906250 54574.679688
65521.292969 84599.031250 54432.867188
65530.335938 84494.421875 54687.539062
91858.289062 81633.390625 60434.992187
91795.757812 81686.226562 60725.292969
91876.304688 81959.523438 60541.117188
65627.843750 84571.984375 44161.324219
65890.960938 84718.914062 44700.566406
65690.632812 84431.742188 44677.621094
65731.828125 84583.109375 44448.695312
65993.093750 84760.945312 45065.468750
66066.664062 84810.929688 45405.871094
66110.804688 84847.828125 45754.191406
65897.625000 84774.164062 47564.308594
65793.984375 84649.867188 47802.414062
65727.812500 84667.375000 48088.464844
65637.046875 84666.070312 48416.671875
65813.109375 84956.710938 48294.667969
65700.703125 84887.968750 48634.718750
65612.156250 84836.789062 48874.558594
91299.992188 69920.328125 62394.632812
91589.781250 70113.375000 62290.371094
91535.281250 69763.007812 62241.894531
91781.804688 81943.562500 60882.863281
65678.507812 84643.289062 53472.246094
65759.812500 84623.078125 53742.070313
65902.960938 84608.992188 53571.761719
65753.750000 84575.968750 54255.769531
65627.468750 84639.992188 53963.296875
65884.695312 84583.000000 53992.753906
91942.757812 82113.218750 60241.265625
66006.031250 84597.609375 45960.648438
66139.953125 84907.507812 46128.218750
66605.820312 85026.820312 52168.925781
66465.039062 84876.390625 52403.132812
66340.078125 84910.960938 52181.171875
66220.804688 84799.734375 52396.535156
66081.015625 84721.359375 52570.589844
65985.453125 84750.851562 52362.804688
65834.640625 84682.148438 52609.097656
66046.132812 84674.953125 52796.714844
66255.453125 84676.062500 52953.765625
65979.398438 84639.734375 53059.140625
65924.359375 84620.562500 53334.324219
66212.507812 84629.234375 53235.898438
66173.664062 84590.765625 53551.464844
66038.742188 84521.335938 54219.175781
66287.929688 84495.945312 54146.003906
65950.992188 84486.101562 54440.988281
66482.390625 84740.179688 52846.058594
66519.578125 84684.664062 53109.472656
66452.546875 84614.781250 53408.859375
66709.617188 84657.632812 53340.066406
66645.195312 84600.757812 53547.093750
66557.906250 84507.179688 54004.121094
91917.289062 81775.226562 59699.214844
67001.351562 84873.140625 52929.558594
66825.296875 84745.171875 53119.976563
66715.085938 84789.046875 52887.617187
66958.046875 84710.242188 53334.347656
66859.835938 84629.843750 53546.457031
66737.085938 84564.460938 53762.578125
67000.710938 84595.750000 53765.148438
61475.167969 84870.023438 51305.261719
61922.703125 85368.132812 51462.468750
61839.214844 85244.335938 51404.078125
62053.656250 84868.054688 55541.738281
61785.601563 84581.515625 55529.925781
62037.343750 85117.398438 51397.855469
62284.464844 85050.171875 51430.453125
62211.312500 84847.351562 51353.257812
62166.675781 85269.968750 55464.476562
62194.039062 85383.867188 51554.632812
62514.394531 85109.546875 51527.800781
62997.871094 84870.117188 51577.140625
62770.363281 85132.531250 51637.386719
62431.570312 85353.757812 55389.722656
62448.671875 85075.921875 55485.203125
62915.886719 84656.835938 51454.378906
62982.218750 85467.562500 52016.156250
63279.210938 85255.359375 52047.289062
91898.242188 81576.929688 59133.609375
91911.742188 81534.851562 59481.906250
62824.878906 85103.703125 55388.308594
63525.453125 84861.742188 51790.574219
63648.714844 84964.437500 51979.160156
91876.695312 81718.750000 58850.750000
91882.609375 81860.882812 59060.269531
