1223
-34639.132812 43453.585938 20200.964844
-34616.664062 43091.175781 19281.974609
6257.225098 39491.355469 47108.152344
7105.665039 39012.351562 46310.031250
7003.761719 39350.746094 47005.902344
7455.229004 39249.195312 46505.550781
9796.775391 42398.953125 32219.646484
-1249.417969 37904.339844 50370.445312
-689.693970 37655.527344 50548.796875
-1048.123047 37307.519531 50958.894531
-1630.444092 37245.765625 51085.816406
-3133.122803 46365.140625 33359.097656
-3881.135010 46364.476562 32973.097656
-9386.150391 42307.609375 41823.550781
-8799.847656 42304.062500 42086.425781
-9289.056641 42065.296875 42414.761719
-10008.509766 41910.535156 42210.351562
-8887.999023 42546.023438 41357.750000
-9191.892578 42660.277344 40912.355469
-20370.677734 41440.511719 12941.216797
-15744.435547 24453.195312 58825.203125
-12496.892578 39657.226562 44976.636719
-13028.829102 39232.128906 45470.238281
-12781.117188 38968.539062 46079.273438
6446.083984 15144.219727 30569.941406
7463.256836 15193.475586 30859.259766
7868.743164 15522.990234 30299.431641
5946.703125 14768.111328 31395.529297
-19753.343750 42575.722656 41152.531250
-19614.099609 42885.343750 40380.207031
-20437.771484 42357.324219 40872.730469
-20897.820312 41983.769531 41423.679688
-40942.640625 17408.703125 26384.685547
-42016.125000 18103.669922 26963.849609
-33687.582031 43232.199219 18916.601562
-33897.792969 43539.285156 19852.847656
-33133.500000 43696.054688 19710.498047
17131.375000 27328.083984 36308.867188
16871.923828 26483.539062 36376.453125
-15913.583008 32190.550781 58926.445312
-10757.643555 42862.941406 52494.546875
-11348.952148 42852.570312 52502.386719
-21506.087891 47068.402344 35890.503906
-16643.546875 18037.843750 4296.500977
-17170.503906 17049.746094 5351.525879
-7666.909180 15543.617188 8159.078613
-5808.075195 47153.476562 42012.550781
848.865967 15444.730469 24047.833984
1648.791016 15403.724609 23878.859375
2006.055176 15419.091797 24698.498047
1506.312012 15492.579102 25209.291016
-7858.921875 42077.957031 42869.144531
-6995.690918 42423.320312 42659.671875
-8632.221680 41983.558594 42703.031250
737.447998 14757.689453 32727.402344
-651.401001 14502.609375 34530.234375
-3610.287842 48272.300781 37125.667969
-7390.654297 27633.669922 59210.621094
-8316.615234 27369.003906 59210.414062
-3377.079102 46877.269531 25638.833984
-1862.536011 47024.406250 26425.576172
-2728.551025 46945.664062 26274.001953
11974.512695 17252.972656 38316.230469
12616.038086 17723.876953 37623.132812
12289.512695 17039.871094 37138.687500
11603.762695 16436.658203 37655.937500
11703.779297 17681.339844 39443.656250
12322.676758 18029.449219 38750.992188
11396.205078 16849.154297 38935.910156
12947.324219 18440.404297 38074.617188
-42712.226562 41613.601562 31862.251953
-43145.468750 41235.312500 32015.167969
-43387.539062 41509.113281 31763.304688
-42701.539062 41542.468750 32812.187500
-42859.578125 41560.140625 31222.433594
-42262.468750 42011.105469 32252.326172
-43383.675781 41428.621094 32455.117188
-43698.617188 41728.578125 32364.429688
-43651.644531 41591.234375 31215.380859
-43778.417969 41770.355469 31713.519531
-43337.246094 40985.910156 32630.423828
-43474.859375 41395.773438 33073.023438
-44116.183594 41430.617188 32769.621094
-48030.148438 19951.863281 35547.941406
-13226.375977 49025.871094 29112.271484
-36578.054688 44498.617188 36495.230469
-37006.101562 44515.433594 35942.164062
-35833.316406 44565.175781 36649.703125
-36338.191406 44602.316406 35683.308594
-2475.708984 25549.880859 51291.808594
-39941.363281 13998.499023 38625.589844
-38119.820312 14096.096680 45290.597656
-30676.464844 11503.874023 31010.392578
-31831.742188 11921.431641 31227.867188
-32173.716797 12621.489258 29590.259766
-32386.867188 12431.129883 30542.375000
-31039.105469 11318.021484 31907.701172
-29980.933594 11012.150391 31587.843750
7643.852051 34856.214844 19241.322266
7111.291992 35626.402344 18817.441406
8036.790039 34525.089844 19862.388672
-36229.820312 24515.187500 56571.054688
-35570.398438 24129.005859 56834.011719
-34822.207031 24933.710938 57278.828125
-34314.031250 25858.417969 57463.191406
-27932.150391 20081.769531 57406.421875
-26761.296875 20868.492188 57742.695312
-20926.919922 15455.044922 54042.175781
11333.615234 20806.939453 22293.023438
11924.291992 20759.587891 22639.322266
11876.759766 20116.484375 22815.173828
11405.582031 21324.298828 23363.763672
11625.467773 21851.205078 22928.625000
11287.877930 20338.476562 23027.134766
11756.964844 21570.222656 22227.390625
11004.719727 20065.466797 22236.957031
12560.896484 21594.259766 22690.453125
12505.541992 20871.341797 22907.328125
11702.208984 19487.628906 22972.656250
11260.886719 20704.101562 23774.945312
12483.218750 19785.400391 23360.482422
-18339.351562 44186.558594 16757.562500
-18706.148438 44153.121094 17522.439453
-19479.988281 43935.125000 17648.382812
-18113.603516 44439.082031 18059.820312
-18880.949219 44259.507812 18394.376953
-17769.572266 44430.183594 17353.724609
-9370.736328 45834.882812 28847.781250
-25413.923828 14885.145508 21365.773438
1018.772949 39791.585938 12118.065430
1428.014038 38829.238281 12562.686523
1459.785034 40476.906250 12368.154297
11744.182617 31788.691406 42180.046875
12067.550781 31272.453125 42730.070312
-27937.371094 15165.791992 50259.695312
-28492.257812 14525.409180 49458.261719
-28841.974609 14925.692383 49936.054688
-28679.890625 15306.363281 50636.648438
5818.552734 47643.570312 22526.691406
7291.658691 45941.425781 23207.052734
-44987.406250 16580.412109 39061.699219
-44199.402344 16087.180664 38285.132812
-48474.179688 36639.847656 37243.835938
-48894.460938 36394.574219 36419.613281
-49013.570312 36142.523438 37291.843750
-48225.105469 36910.277344 36556.457031
-47857.601562 37010.164062 37272.214844
-49543.707031 35837.375000 36696.804688
-49278.894531 36501.222656 37979.355469
-49398.714844 35295.453125 37535.238281
-49250.597656 36225.507812 35739.660156
-18658.972656 41832.273438 7420.385742
-17873.404297 41995.792969 7142.444336
-18156.580078 42406.250000 7770.692871
-19484.865234 41535.902344 7534.642090
-28567.218750 46862.074219 33714.992188
-29290.435547 46787.164062 33145.144531
-15194.199219 42147.238281 41744.089844
-15070.149414 42507.175781 41051.203125
6598.909668 44831.105469 32781.765625
5899.856934 45332.312500 32177.990234
-8534.579102 46285.703125 24598.957031
-8044.425781 46291.378906 25341.310547
-7527.692871 46394.132812 24801.480469
-14960.138672 10618.881836 38000.796875
-30663.917969 35291.128906 49207.003906
-29977.794922 35815.781250 48804.117188
7403.606934 39342.355469 19653.054688
7448.419922 39471.855469 20317.460938
8249.620117 38579.296875 20808.917969
11584.918945 29159.410156 47874.585938
10912.936523 29276.216797 47916.460938
-45393.785156 19965.166016 33718.992188
-45421.550781 19628.474609 34586.535156
-8107.681152 46372.367188 20117.962891
-8329.872070 46343.046875 19440.326172
16082.868164 24172.773438 34221.535156
16189.166992 24304.482422 35052.125000
-42793.851562 29952.230469 54208.992188
-43056.500000 26951.021484 50624.894531
-38789.003906 17339.722656 23941.744141
-39570.085938 17574.738281 24584.582031
-38262.355469 16738.457031 24422.125000
-29851.906250 38484.945312 14797.816406
2407.826904 47333.152344 38419.960938
-429.426025 47738.617188 38177.136719
-17134.726562 12109.146484 32566.265625
-17438.177734 12239.903320 31859.310547
-17358.419922 12465.901367 31357.972656
-16393.744141 12063.264648 33010.457031
-43564.781250 42307.281250 31724.560547
-43606.207031 42143.843750 32235.988281
-43410.730469 42589.894531 31130.236328
-43663.750000 42082.144531 31233.589844
-43321.500000 42813.312500 31723.125000
10997.875000 28506.966797 21721.763672
10809.901367 29598.312500 21957.820312
10619.089844 29471.128906 21125.103516
11193.412109 27698.529297 21240.597656
11389.583984 27289.019531 22061.785156
11126.872070 28846.380859 22418.044922
11039.579102 29588.923828 22852.615234
-49264.933594 28505.953125 36816.085938
-15816.427734 25114.041016 54267.445312
-11799.169922 19864.820312 53201.328125
-10904.609375 19685.222656 53046.066406
15631.431641 41913.285156 32977.820312
16308.857422 41507.832031 33760.496094
-23075.822266 42094.308594 49020.050781
-22338.033203 42232.835938 49158.117188
-10193.228516 30909.042969 54861.113281
-10000.400391 30329.490234 55305.242188
-13951.597656 30600.822266 59001.605469
-18160.798828 32841.320312 52214.574219
-30813.917969 30240.251953 11262.816406
-31316.650391 31079.060547 11375.120117
-33573.929688 44541.878906 23247.187500
-5395.449219 39998.785156 54202.488281
-40596.710938 42325.058594 28548.652344
1156.020020 13527.876953 46527.753906
-18515.765625 35038.601562 57049.070312
-18194.683594 34563.191406 57580.535156
-18013.558594 35635.628906 56707.570312
-29283.162109 19554.269531 54332.480469
-28261.392578 19992.119141 54570.750000
-27306.041016 20428.630859 54643.457031
-12478.854492 37767.039062 6754.051270
-11825.251953 37281.687500 6480.165039
-27361.318359 11074.351562 29490.291016
-26997.253906 10818.177734 30198.767578
-27444.396484 11240.350586 28682.195312
-26597.664062 11000.640625 29112.703125
-27499.513672 10555.441406 31029.835938
-21745.423828 43285.503906 18350.083984
-22375.472656 42953.695312 17734.296875
-21621.283203 43172.683594 17356.869141
-21058.472656 43465.832031 17811.921875
-27942.939453 13749.019531 24518.976562
-28630.945312 14441.688477 23393.625000
-28698.248047 14004.679688 24366.857422
-27872.375000 14472.798828 22873.710938
-28405.677734 13641.138672 25265.474609
-38702.277344 40318.976562 17564.994141
-6318.333008 12794.182617 44828.808594
-5507.022949 12883.613281 45590.195312
-47278.246094 35430.375000 37788.328125
-31297.724609 42260.218750 15803.186523
-31281.593750 41550.000000 14716.416016
-30951.710938 42059.546875 15317.561523
-19708.591797 47572.558594 21682.902344
-18989.720703 47809.699219 21739.380859
-20359.224609 47418.738281 22253.080078
-20497.941406 47268.378906 21276.107422
-8095.862305 42441.414062 53309.695312
-8752.812500 42325.238281 53312.832031
-25926.626953 37562.976562 52837.550781
-32869.101562 26700.460938 10760.811523
-33541.078125 26290.330078 11112.890625
-33250.339844 27361.777344 10749.201172
-32145.552734 26213.435547 10563.247070
-32814.644531 25919.847656 10963.791016
-32413.257812 27306.863281 10416.778320
-17097.621094 43482.703125 8475.082031
-16508.962891 42526.375000 7087.497070
-17442.412109 42856.472656 7889.513184
-17178.619141 42470.738281 7308.626953
-22476.912109 36093.589844 8278.713867
-21747.197266 36795.054688 8358.458984
-21818.429688 37439.722656 8834.560547
-30756.183594 24966.843750 10387.959961
-31120.855469 25493.953125 10338.149414
-30508.695312 25945.951172 9943.137695
-50114.144531 25265.974609 32543.640625
-50391.492188 26118.644531 32992.480469
-50168.472656 26356.857422 32246.634766
-49876.589844 25497.539062 31836.298828
-49698.750000 24341.873047 32197.757812
-19766.248047 48011.328125 33006.718750
-19582.070312 48078.234375 32382.912109
-19320.949219 48117.878906 33651.390625
-18637.458984 48281.164062 33294.265625
-20540.406250 47773.300781 32622.673828
-20645.955078 47692.164062 33251.140625
-20027.505859 47863.945312 33662.480469
-20171.339844 47881.730469 31935.027344
-3537.281982 46162.707031 19136.779297
-3888.334961 46038.542969 18359.945312
-4986.248047 45964.074219 18063.441406
-49707.273438 34961.695312 36702.230469
-22514.464844 13398.750000 47743.066406
-5015.234863 40552.363281 53794.636719
5006.729980 42816.671875 13694.790039
17654.552734 37785.484375 40045.703125
18106.937500 38374.199219 39137.582031
-3444.988037 15930.288086 51721.566406
-2456.904785 15821.310547 52224.796875
-2214.813965 16312.595703 52510.292969
-5599.583008 16318.725586 52437.769531
-4867.951660 15962.789062 51944.867188
-24205.513672 43834.097656 29465.726562
7900.324707 30243.630859 44447.886719
8489.488281 29777.093750 44921.730469
9335.470703 29743.613281 44972.355469
6994.977051 30551.410156 44234.363281
7892.238281 31020.298828 43467.808594
6898.995117 31110.080078 43515.246094
-19137.615234 31878.380859 59015.925781
-19319.826172 31113.232422 59210.085938
-9619.213867 32415.623047 6064.708984
-30330.351562 42662.359375 37240.074219
-30819.171875 42922.066406 36282.066406
-29742.164062 42817.820312 36766.394531
-31084.691406 42645.359375 37061.417969
-30770.058594 42412.359375 37907.062500
-1746.440063 49846.546875 22562.078125
-36744.914062 44274.273438 28875.888672
-27282.353516 42200.343750 20919.521484
-26869.082031 42861.023438 22619.978516
-15549.278320 40257.027344 44359.972656
-16326.558594 40215.855469 44829.652344
-17074.339844 12594.243164 43312.527344
-17343.839844 12775.822266 44268.488281
-48116.878906 36241.128906 25317.000000
-47801.199219 36887.792969 25199.140625
9726.771484 39923.949219 39782.472656
10116.414062 39804.742188 40491.890625
9924.173828 38585.527344 39309.308594
9733.280273 39370.082031 39356.699219
9667.971680 40550.628906 39311.460938
10072.802734 40700.195312 40069.230469
-38076.015625 16981.960938 23614.404297
-36785.355469 16300.745117 23435.027344
-37093.707031 16200.221680 24118.255859
-37777.066406 16600.810547 24085.429688
112.147003 15534.531250 51430.738281
-73.585999 15144.851562 51489.976562
463.070007 15756.907227 51173.605469
-107.309998 15724.883789 51675.886719
-406.346008 15400.885742 51852.761719
-252.355988 14753.089844 51448.753906
-526.175964 14911.706055 51846.613281
2042.748901 18359.822266 50590.941406
2274.848877 18129.443359 50277.125000
1581.921021 18112.910156 50753.523438
1931.329956 17801.308594 50525.933594
1801.478027 18723.781250 50760.960938
5867.664062 39213.781250 16914.269531
5558.546875 40015.714844 16576.210938
17208.021484 28156.574219 41391.171875
-20804.021484 11740.606445 28664.714844
-21380.980469 11522.947266 28869.435547
-20817.382812 11735.635742 27979.074219
-21975.880859 11360.446289 28418.914062
-20268.214844 11956.499023 27685.781250
-7902.069824 40495.921875 8044.617676
-8091.298828 39845.578125 7594.879883
-7267.324707 39263.062500 7376.639648
-6601.822754 39318.980469 7554.966797
-29396.728516 45112.125000 40147.218750
-29994.355469 45225.789062 39380.722656
-30307.455078 44997.777344 40015.765625
-28381.111328 45303.160156 39928.757812
-28971.775391 45398.429688 39439.425781
-13523.113281 46317.785156 44199.429688
-17501.501953 44349.082031 16676.132812
7575.532715 33406.230469 44552.773438
7534.264160 32859.984375 45073.011719
7241.789062 32682.052734 44468.937500
1327.268921 15147.523438 19048.869141
2044.832031 15121.103516 19819.550781
2285.760010 14755.547852 19161.941406
1691.969971 14694.101562 18272.068359
957.885010 15041.861328 18134.644531
-44241.402344 31417.722656 19219.531250
-43692.355469 31368.367188 18448.623047
-14063.220703 48137.464844 16020.498047
-14796.590820 47911.808594 15628.580078
-11734.273438 30341.812500 54645.277344
-10958.423828 30529.074219 54765.367188
-10569.584961 30221.125000 55116.773438
-17899.808594 18363.908203 53471.707031
-17209.896484 17805.119141 53231.144531
-51359.359375 26874.308594 37614.519531
-30664.341797 46187.175781 25321.175781
-30959.339844 46234.593750 26332.722656
-29761.853516 46472.246094 25351.755859
-28679.041016 23717.443359 13468.858398
-3152.437988 27595.781250 54558.886719
-3969.406006 27561.714844 54815.835938
-3753.218018 26997.785156 53417.515625
-3092.370117 27121.945312 52987.429688
10677.988281 38769.359375 41890.300781
-3029.083984 24988.468750 51532.234375
-27498.496094 39230.226562 9127.932617
-28250.511719 38742.906250 9162.358398
-27742.376953 39709.921875 9679.254883
-44721.757812 34195.160156 23203.416016
-44919.812500 35080.500000 23609.960938
-27678.279297 13041.391602 27385.947266
-28094.935547 13352.124023 26172.824219
-40258.910156 30495.496094 17146.697266
-40593.339844 31068.929688 17473.269531
-40117.199219 31241.970703 16990.234375
-40723.273438 31794.488281 17581.972656
-40960.285156 30643.154297 17880.244141
13063.920898 31137.691406 27348.462891
13039.080078 31978.224609 27074.177734
13191.921875 30271.783203 27800.574219
13243.532227 32320.167969 27519.601562
-29468.634766 26611.925781 55183.457031
-28481.322266 27404.322266 54869.300781
-30365.718750 25982.058594 55380.566406
-42160.261719 43204.554688 35204.253906
-43180.105469 42505.750000 34863.445312
-42688.054688 42723.746094 35634.300781
-41889.253906 43283.875000 35875.199219
6914.466797 45720.765625 37547.593750
15767.500977 18614.015625 32043.380859
16073.051758 19300.652344 31634.054688
15535.632812 18227.267578 31454.169922
15719.414062 18465.039062 33122.578125
15348.862305 17868.662109 32426.212891
5679.470215 14907.239258 21820.011719
4425.851074 15312.621094 21868.712891
5504.899902 15352.012695 22384.095703
6412.539062 14332.156250 21951.582031
6111.456055 14874.714844 21135.058594
5762.729980 14205.446289 21337.027344
5018.202637 14585.555664 21088.154297
4476.724121 14957.935547 21276.376953
-22160.480469 28114.802734 7926.778809
-4511.925293 49784.457031 28470.447266
-4052.748291 49839.746094 27851.787109
13223.842773 39362.695312 21181.525391
12835.643555 40034.792969 20852.970703
-11144.079102 43320.273438 38086.386719
-11814.609375 43393.601562 37873.218750
-12463.709961 43481.363281 37651.621094
2039.285889 43445.789062 16767.363281
2314.568115 43704.277344 17634.042969
1676.010010 43951.792969 17349.769531
2857.510010 43210.656250 17446.005859
2682.065918 43023.695312 16740.925781
1261.433960 43780.000000 16534.156250
1477.643921 43323.593750 15965.984375
2900.351074 43785.773438 18697.812500
2945.815918 43399.320312 18111.343750
963.515991 44276.125000 17101.345703
-15871.375000 18410.115234 53030.031250
-36331.109375 35396.542969 52143.175781
-13251.756836 25996.816406 59490.640625
-13821.797852 26538.654297 59480.984375
-12481.125000 25934.707031 59476.257812
-3431.544922 30429.208984 5196.590820
-23929.802734 13355.883789 27266.125000
-24656.755859 13181.925781 26924.800781
-23046.648438 13590.273438 27602.218750
-34307.210938 21577.857422 15361.287109
-33731.714844 38386.722656 16678.705078
-32934.214844 37793.503906 15689.188477
-33419.871094 37206.898438 15328.644531
10408.273438 17684.494141 28444.005859
10599.747070 17912.289062 27613.972656
7336.557129 42330.652344 25754.634766
-49200.066406 23856.736328 37247.687500
-49319.621094 24281.261719 36264.011719
-48955.203125 23493.201172 35714.007812
-48698.757812 38102.585938 26551.546875
-48317.023438 37735.140625 28179.271484
-36682.910156 24013.675781 14317.192383
-37239.378906 23688.361328 14889.968750
-37357.628906 24411.357422 14422.462891
3056.595947 40985.296875 47954.507812
2614.916016 40977.363281 47936.316406
2236.295898 41180.332031 47711.750000
466.843994 32990.472656 10214.080078
746.682007 33741.820312 10543.110352
81.240997 32430.039062 9745.057617
1025.428955 32532.798828 10147.865234
1274.291992 33120.445312 10651.670898
1797.176025 32411.742188 10340.533203
1987.794067 32910.375000 10867.251953
-2694.335938 45963.070312 18325.621094
-3341.872070 44871.722656 39002.625000
-10523.623047 39817.734375 7484.415039
-10443.882812 38970.261719 7097.657227
-9661.478516 40001.707031 7601.888184
-10165.350586 40520.750000 7935.493164
-9724.529297 39292.121094 7229.805176
-11204.732422 38663.355469 7005.241699
-10336.295898 38181.511719 6760.478027
703.774963 48046.441406 36129.257812
1764.041992 47889.246094 36211.257812
-17940.873047 25875.294922 6858.262207
-18348.984375 26745.761719 6900.675781
-17334.759766 26011.953125 6385.465332
-17365.257812 25160.300781 6566.291992
-16906.146484 25318.216797 6113.128906
-15158.232422 13127.195312 50840.917969
-15944.230469 13184.875977 50720.714844
-15530.681641 12811.381836 50085.304688
-14767.674805 12673.063477 50085.804688
-16445.888672 13642.313477 51439.566406
-19939.708984 13927.918945 36849.890625
-20965.130859 13874.427734 36931.519531
-19390.521484 13812.041992 37451.515625
7908.370117 45521.687500 23837.208984
899.572998 43493.023438 44106.867188
1165.307983 44171.664062 43288.375000
1373.697998 43950.144531 43725.738281
1594.014038 43591.433594 44260.277344
-19066.197266 45118.375000 46571.121094
-18553.820312 44889.554688 47088.890625
-21766.085938 21736.261719 7492.731934
-256.976013 36972.062500 11184.954102
-803.419006 36761.542969 10737.368164
194.071991 35681.609375 10783.043945
248.910995 36280.757812 11179.386719
82.464005 35084.820312 10433.012695
-27819.632812 12822.817383 30808.390625
-21081.878906 31172.152344 53187.746094
-24923.027344 14701.761719 51838.273438
-41702.687500 16533.267578 42329.992188
-45473.308594 36082.285156 42134.613281
-30324.414062 43418.570312 34517.078125
-28639.744141 43766.320312 33719.972656
-29441.076172 43531.964844 34366.695312
12461.421875 15923.187500 41379.582031
12530.407227 16336.629883 40512.800781
12837.023438 16655.558594 41308.382812
11648.415039 16371.782227 41999.191406
11687.252930 15617.458984 41585.562500
12225.419922 17059.746094 41862.316406
12931.257812 16566.753906 39450.425781
13019.849609 17005.474609 40376.667969
13070.150391 17276.232422 41330.070312
-21365.730469 25433.498047 5960.045898
-21909.988281 24569.417969 6527.249023
-22186.238281 25330.562500 6352.817871
-20179.330078 26233.632812 5235.980957
7513.366211 38044.406250 48697.011719
7665.810059 38371.148438 48348.769531
8044.766602 37626.621094 48388.140625
8048.174805 38005.453125 48165.394531
-2753.864014 45150.156250 38445.929688
16876.115234 40309.101562 33464.558594
17475.009766 39986.238281 34356.644531
-20419.091797 14343.129883 20593.392578
-2494.350830 34539.917969 8585.492188
-2774.671143 35125.847656 8882.105469
-486.445984 28631.777344 52702.824219
-1448.812012 28549.896484 52419.441406
-213.672989 28407.912109 53234.820312
382.631012 27864.216797 53021.839844
-471.058014 26961.509766 53572.671875
-43354.179688 32075.226562 53174.828125
-37801.398438 43426.800781 25802.326172
-36790.757812 43726.675781 26020.490234
-35565.269531 44090.750000 25450.455078
-46336.304688 37693.054688 26669.308594
-46194.023438 38099.214844 27415.250000
-46534.785156 37814.304688 27962.166016
-31535.595703 12732.430664 27883.431641
-31812.296875 12660.507812 28718.324219
-4794.166016 16354.908203 16036.670898
-30823.019531 35918.183594 48519.164062
-31084.001953 36639.101562 47861.421875
-31707.552734 36099.585938 48106.382812
1099.189087 29012.378906 50768.191406
839.346008 28493.626953 50437.375000
820.504028 29289.244141 51198.855469
-40564.156250 26324.421875 52105.980469
-39722.601562 24716.289062 52075.660156
-3957.530029 32609.367188 54745.941406
11036.588867 16037.923828 38280.039062
1237.958008 26903.703125 48259.199219
699.940979 26399.152344 48644.566406
-14700.337891 40671.332031 54177.078125
-1121.054077 43715.382812 14559.123047
-244.723007 43877.582031 15370.306641
-1011.751038 44050.132812 15226.123047
-389.153992 43480.757812 14698.030273
-1642.739990 44481.937500 15493.168945
259.710022 43438.007812 15118.833008
662.721985 43665.824219 15790.233398
465.639008 44030.734375 16256.275391
-2365.778076 31651.134766 8488.604492
-3091.791992 31177.964844 8163.683105
-18536.958984 31374.115234 59242.679688
8249.801758 37385.199219 44178.976562
8394.875977 37141.003906 44640.035156
-41947.074219 43055.773438 26605.763672
-42345.699219 42620.722656 26159.953125
-42837.714844 42734.199219 26895.064453
-41552.164062 42773.421875 25858.292969
-42497.656250 43057.542969 27164.898438
-41604.812500 43473.937500 27105.208984
-41147.550781 43245.562500 26395.000000
-43021.066406 42389.582031 26455.015625
17053.767578 34826.625000 38901.421875
16958.578125 34259.425781 39640.582031
17378.443359 34127.449219 39374.144531
17236.287109 35084.175781 38327.515625
17616.007812 34173.203125 38813.929688
-2590.164062 46861.574219 27736.357422
-2912.100098 46896.394531 26994.304688
-2104.041016 46947.632812 27132.667969
-3572.208984 46866.324219 26342.402344
-33834.886719 45303.675781 32319.035156
-35709.980469 26705.574219 12114.725586
-46016.015625 20168.691406 34574.894531
-45898.843750 19681.451172 35496.007812
-47580.500000 35522.925781 27394.416016
-3972.914062 24557.433594 55476.621094
-44029.664062 22689.582031 24470.896484
-44393.945312 22391.154297 25261.105469
-44109.765625 23442.166016 23766.902344
-24915.757812 16750.775391 54623.128906
-6324.561035 16218.763672 9271.830078
-7010.752441 15616.160156 8864.794922
-20669.597656 41750.863281 50475.085938
-9217.022461 44746.367188 49129.617188
-8872.375000 44884.503906 48687.335938
-9069.078125 45140.929688 47878.859375
16294.573242 36606.714844 36705.851562
15179.010742 22022.449219 33286.125000
14881.353516 21547.361328 32740.630859
15383.250000 22493.208984 33538.093750
-17157.060547 27348.250000 54777.007812
-35186.769531 28335.074219 14305.460938
-35016.707031 27698.626953 14532.331055
-28770.742188 13492.685547 50921.097656
-29386.576172 13265.233398 50109.164062
-27916.656250 13512.093750 51272.429688
-29797.347656 13727.382812 50698.378906
-30607.150391 13675.917969 49995.347656
-30000.441406 13113.431641 49422.617188
-29022.363281 13928.436523 51568.476562
-22969.941406 23082.560547 7514.226074
-24454.019531 23025.031250 8169.462402
17139.035156 29354.263672 28934.384766
17476.958984 28974.310547 29706.136719
17342.720703 28574.191406 28979.886719
-33274.472656 37795.500000 12097.116211
-32385.257812 38194.027344 11768.906250
-33093.273438 37399.789062 11605.531250
-33838.824219 37023.875000 11940.622070
-32864.183594 38471.019531 12304.877930
15656.607422 24188.035156 32560.958984
15893.613281 24909.998047 32665.511719
-7589.759766 14071.767578 38176.742188
-49031.386719 33305.398438 42624.714844
-42909.703125 41207.125000 34320.199219
-43342.765625 40734.671875 34793.402344
-43029.000000 40927.285156 35616.156250
-42733.605469 41415.613281 33684.921875
10557.661133 25898.667969 49568.722656
9917.680664 25934.755859 49575.179688
10389.277344 25392.412109 49207.882812
10766.844727 26372.701172 49194.921875
10129.047852 26917.076172 49149.937500
11005.955078 25592.009766 48844.378906
9149.842773 26113.861328 49590.250000
9772.072266 25356.951172 49591.000000
9595.653320 26739.000000 49317.738281
10677.012695 25035.962891 48758.070312
-25910.259766 35980.179688 48954.058594
-20737.207031 47312.609375 36454.335938
-20414.697266 47430.140625 37100.960938
-45623.453125 34141.738281 43864.289062
-44950.941406 34243.625000 44970.007812
-365.444000 35246.128906 54922.078125
344.397003 35096.785156 54496.480469
101.507004 35589.382812 54403.894531
-461.069000 35801.769531 54745.035156
-361.527008 34883.355469 55401.144531
-1051.169067 35179.218750 55354.937500
-78.676003 36202.203125 54374.394531
812.829956 34844.152344 54023.605469
-40041.882812 23695.740234 52405.089844
-39233.593750 23954.375000 52044.535156
-40257.136719 22765.828125 52631.988281
-5176.607910 33213.644531 7447.025879
-5339.999023 33906.593750 7597.287109
-5901.402832 33184.027344 7386.858887
-5550.010254 32649.574219 7252.226074
-11861.846680 43396.414062 11093.304688
-11447.761719 42670.093750 9939.250000
6013.020996 44423.554688 18371.160156
6325.449707 43725.085938 18050.474609
5821.543945 44117.039062 17424.455078
5419.290039 44718.410156 17525.625000
5548.055176 45163.746094 18502.773438
6065.100098 44875.984375 19167.521484
6560.832031 44231.593750 19252.162109
6139.069824 43446.320312 17168.253906
5404.625977 44223.035156 16694.503906
13364.295898 32779.089844 28080.308594
5025.479004 44619.074219 24472.464844
5569.949219 43966.062500 24641.335938
3451.432861 45965.757812 23797.736328
3635.572998 45581.199219 23232.162109
4254.211914 44865.136719 23261.576172
4594.187988 44938.863281 23954.281250
4884.613770 44231.906250 23751.587891
-9285.353516 48067.664062 36313.562500
-11235.059570 47405.289062 37627.285156
-45096.125000 18428.074219 37821.898438
-18503.607422 11906.440430 32469.955078
-19297.121094 11727.336914 32357.750000
-28453.744141 9985.020508 34204.835938
-27918.142578 9936.279297 33479.207031
-45984.390625 35986.128906 41124.148438
-46434.187500 35683.648438 40461.800781
-30680.160156 26749.166016 58294.160156
-31547.099609 27157.927734 58046.089844
-31693.835938 26171.769531 58233.410156
-29441.521484 26947.832031 58445.214844
-30223.171875 27396.201172 58210.687500
-32764.384766 25630.732422 57978.835938
-32357.546875 26380.666016 58027.015625
-31032.781250 27895.251953 57904.054688
-31855.089844 28004.433594 57687.257812
-32750.480469 27492.738281 57674.132812
-32604.644531 26920.041016 57852.488281
-2794.425049 30689.892578 8106.222168
-3435.085938 30254.072266 7867.431152
-22771.560547 19438.437500 9592.676758
-22287.089844 18759.658203 9909.153320
-23056.972656 18898.335938 10248.560547
-23643.349609 19422.722656 10075.038086
-23598.835938 19820.357422 9660.054688
15019.166016 26578.333984 43821.726562
14647.545898 26329.884766 44206.195312
-16684.392578 22145.197266 57528.820312
-15939.322266 22289.607422 57554.125000
-9814.944336 21962.458984 53513.808594
-10264.566406 21402.105469 53350.042969
-10258.898438 20597.966797 53192.363281
4013.327148 24628.578125 50038.425781
3293.731934 25089.812500 49915.246094
1988.337036 39459.417969 48640.867188
-22819.693359 18220.910156 10752.896484
9303.965820 16585.519531 28211.218750
10002.381836 17171.710938 27924.488281
8866.098633 16296.470703 28976.630859
9749.743164 16965.203125 28862.054688
2838.593994 44967.914062 40942.898438
2219.695068 45062.832031 41453.812500
1537.791016 44948.765625 41916.597656
3498.713135 45180.375000 40485.042969
3902.947021 45204.941406 40866.835938
-4329.844238 40650.285156 46979.093750
-2793.895020 40749.644531 46353.765625
-3123.635986 40615.667969 46929.281250
-3936.656982 40500.664062 47400.640625
-19229.310547 30457.742188 4163.958984
-18738.355469 30182.609375 3864.061035
-22111.578125 38694.343750 46284.261719
-21966.042969 39247.035156 45445.570312
-23156.156250 38656.183594 46281.613281
-22631.050781 38965.687500 45758.234375
-5145.320801 49067.660156 18006.642578
-10155.843750 23660.494141 58690.976562
-10862.059570 22891.115234 58234.078125
-17463.869141 19706.316406 55726.277344
-15578.621094 19504.119141 55655.937500
10455.084961 36829.105469 22699.013672
10811.307617 37472.156250 22160.433594
9881.849609 37139.472656 22131.406250
11204.634766 37223.378906 22626.060547
9339.034180 37479.539062 21660.044922
9468.610352 36560.800781 21798.078125
10226.409180 37786.082031 21793.148438
-19920.066406 32175.468750 6649.322754
-39958.738281 26867.076172 55504.867188
-39420.585938 26114.251953 55474.867188
-21098.955078 47116.843750 21720.166016
-21058.941406 47163.808594 22545.054688
-25106.263672 33913.457031 51206.933594
-24346.107422 34089.121094 50980.480469
-23416.041016 34315.101562 50817.617188
-23920.423828 33702.410156 51222.890625
-24708.183594 33350.210938 51599.312500
-21693.052734 43947.863281 47027.343750
-22264.664062 43392.445312 47417.535156
-21811.445312 44230.167969 46201.648438
-22329.066406 43693.203125 46504.839844
-20816.802734 44464.222656 46875.265625
-39075.500000 42776.132812 32348.900391
-25645.750000 42234.914062 19731.384766
-12787.246094 35248.289062 2302.094971
-12607.528320 36003.726562 2734.240967
-12582.201172 36680.222656 3116.520020
-13262.539062 35494.460938 2628.323975
-15689.688477 39590.054688 54996.648438
-46623.660156 21773.638672 32409.751953
-46194.246094 21065.121094 32955.597656
-46344.679688 21881.404297 31715.779297
-47016.710938 22689.699219 31813.828125
-47263.117188 22536.419922 32514.320312
-45758.886719 21016.470703 32182.121094
-7999.752930 44424.304688 7801.584961
-7571.626953 43953.726562 7465.178223
-8780.049805 43956.425781 7360.405762
-6776.090332 44383.554688 7973.317383
-26644.576172 37006.453125 53325.695312
-26631.919922 36481.316406 53845.953125
-26782.435547 37608.316406 52705.144531
-27341.316406 37247.160156 52957.937500
15330.051758 31906.205078 42279.902344
-17525.242188 34855.410156 50781.644531
-11120.928711 20403.513672 53231.472656
-12010.795898 20530.259766 53351.566406
-10060.810547 19814.111328 52940.398438
-10972.252930 21082.296875 53412.101562
-12706.419922 19969.351562 53282.726562
-6864.766113 15739.269531 34421.914062
-6024.549805 15592.454102 34979.542969
-6264.201172 15879.548828 33553.535156
-18528.236328 48108.906250 26560.808594
-18240.658203 48151.496094 25913.376953
-18270.330078 48246.410156 27254.826172
-17738.867188 48351.906250 26694.539062
4940.877930 45467.203125 17870.949219
4882.792969 45895.656250 18392.648438
-32138.675781 40058.859375 18315.175781
-33026.839844 39835.785156 18281.585938
-31782.255859 40324.761719 18651.960938
-33429.957031 40032.285156 18724.064453
-33718.535156 39516.960938 18049.291016
7314.339355 41828.781250 25027.501953
6646.770020 42495.945312 24644.947266
6385.635742 43101.648438 25019.058594
5873.899902 43263.218750 24299.267578
-26535.931641 43164.277344 23384.431641
-25680.302734 43152.269531 23138.025391
-28812.369141 33542.714844 10046.752930
-29314.660156 34185.718750 10409.306641
-28794.906250 34841.144531 10400.921875
-28724.035156 32525.035156 9948.905273
-49443.292969 21640.593750 35493.191406
-18961.666016 27494.107422 54720.414062
-18900.455078 28066.107422 54699.679688
-18266.208984 27936.175781 54768.035156
-18057.457031 27413.380859 54752.417969
-33625.167969 13750.573242 47388.781250
-20893.376953 17409.007812 55640.210938
-9349.707031 20041.083984 4330.369141
-577.561035 46494.347656 30731.275391
-207.306992 46362.367188 31452.148438
-29562.263672 19168.970703 54029.519531
-30200.923828 18808.476562 53723.445312
5408.364746 42108.375000 20447.517578
5941.758301 41496.023438 20541.300781
10765.897461 30083.470703 23372.542969
10635.555664 30498.970703 22239.365234
3143.505127 43914.296875 46358.378906
2686.013916 44237.316406 46006.082031
2570.898926 44105.660156 46607.324219
2380.938965 44528.527344 45662.394531
1976.892944 44367.835938 46206.718750
8356.479492 33910.632812 20069.457031
-7968.620605 30866.597656 59125.640625
-7751.539062 30259.533203 59306.050781
-8058.651855 36758.566406 56355.457031
-7895.502930 37523.449219 55906.886719
-8275.407227 37229.765625 56248.613281
9805.875977 32869.031250 15499.500977
9134.649414 32222.876953 15320.756836
8464.668945 31736.974609 15086.528320
-29320.251953 16787.208984 52316.164062
-28208.214844 16777.914062 52239.992188
-29127.031250 17328.486328 52610.429688
-29878.625000 17544.068359 52782.175781
-38416.800781 26869.134766 13741.579102
-37195.449219 26638.943359 13012.017578
-37860.859375 26380.423828 13552.156250
-15561.177734 47057.910156 41522.828125
-16511.710938 47252.125000 41475.597656
1343.541016 27520.160156 52641.917969
-37690.812500 14140.984375 31654.132812
-12160.934570 40585.312500 5067.604980
-30032.955078 17737.554688 55548.894531
-31320.544922 17515.605469 55015.914062
-30369.990234 18434.226562 56057.761719
-31245.388672 18064.253906 55541.859375
-9400.845703 40744.722656 8105.662109
-8831.575195 40189.027344 7768.089844
-8655.432617 40866.718750 8220.250000
14419.462891 25386.951172 43636.660156
14782.314453 25495.726562 44044.882812
15277.952148 24813.880859 44003.496094
15176.708008 25117.888672 44451.097656
14665.158203 25666.328125 44696.421875
14288.833984 25856.324219 44296.898438
-43560.605469 42752.847656 30243.207031
-43637.222656 42231.730469 30604.908203
13504.098633 17306.976562 39433.769531
-4831.760742 25704.128906 6042.058105
6164.292969 37493.015625 17572.384766
6682.195312 36060.304688 18177.595703
6553.208008 36916.421875 18098.542969
6300.510742 35801.925781 17458.660156
6156.823242 38500.750000 17314.843750
-17848.947266 44754.132812 19454.587891
-17431.154297 44962.628906 20372.908203
-18686.333984 44426.968750 19175.179688
-17692.253906 44697.574219 18720.134766
-18126.701172 44663.242188 20344.416016
-11921.636719 47641.289062 37428.058594
-28244.220703 42478.648438 14159.613281
-27544.441406 42952.144531 14409.458984
-28952.933594 42145.902344 14164.325195
-28751.400391 42619.234375 14830.525391
-28110.183594 42865.398438 14705.831055
-11243.886719 32846.968750 53036.035156
-10899.530273 33163.625000 52898.914062
2020.369019 44279.589844 43352.007812
2253.107910 43843.542969 43783.867188
-36963.812500 41939.468750 28211.015625
-10722.922852 11393.271484 37606.566406
-42571.261719 43260.769531 27666.421875
-38328.621094 44478.378906 35892.652344
-37880.539062 44381.332031 36610.382812
8622.897461 37582.015625 47908.753906
8309.097656 37180.042969 48272.160156
7936.777344 13452.974609 37515.523438
-11614.448242 49268.152344 23764.765625
-11846.473633 49287.296875 22897.060547
-12521.435547 49183.375000 23497.392578
-11056.579102 49327.777344 23221.787109
-10721.679688 49328.980469 24046.326172
-10939.919922 49372.363281 22413.544922
-3318.949951 22631.451172 54290.605469
-3625.755127 23277.121094 54781.777344
-3536.004150 21804.156250 54142.636719
-31412.128906 31440.453125 52170.093750
-30211.423828 13296.297852 24246.392578
-31025.404297 13934.436523 23605.017578
-26236.656250 43341.937500 24158.083984
-13182.483398 18617.341797 8665.105469
-12565.194336 19290.048828 8537.531250
-13899.585938 18111.322266 8552.702148
-11252.921875 41293.703125 8543.707031
-10711.950195 40819.773438 8192.529297
-10364.381836 25500.376953 6768.708008
-25336.425781 22741.537109 8633.258789
-25819.199219 23601.353516 8622.421875
-18350.994141 13155.051758 44900.648438
-2363.732178 41113.140625 45620.246094
-3322.968994 49948.527344 24222.369141
-48652.824219 32459.568359 45056.621094
-48824.160156 32780.078125 44147.449219
-37344.832031 15181.422852 33645.941406
-36809.769531 15090.899414 33208.300781
9842.988281 39499.792969 26756.429688
10256.722656 38759.683594 26866.714844
10325.697266 39247.269531 27376.652344
9839.328125 39969.218750 27211.000000
-34436.761719 45030.312500 31779.892578
-29573.103516 43370.750000 35148.281250
-30560.482422 43202.089844 35352.765625
-31226.488281 43396.402344 33982.148438
-31300.945312 43295.101562 34654.292969
2553.028076 29189.755859 47014.285156
2989.938965 28885.044922 46799.750000
-1141.207031 46699.078125 29550.382812
338.671997 46413.441406 30837.115234
18410.765625 24559.755859 37363.394531
18400.968750 24557.023438 36339.062500
17674.492188 23504.732422 39229.964844
17315.697266 22793.242188 39081.863281
18383.191406 24551.666016 38185.480469
18139.093750 24285.132812 38975.812500
12647.728516 15916.239258 38812.082031
-6251.781738 16681.242188 20497.234375
-7723.015625 47784.984375 13367.603516
-9187.767578 47432.601562 12412.701172
-8601.786133 47743.628906 13232.688477
-9104.888672 47152.863281 11686.832031
-42804.804688 32927.453125 49240.980469
-11814.949219 43755.562500 11726.732422
-545.647034 42145.316406 12488.046875
-7674.480957 25107.365234 3538.633057
-26913.441406 15856.040039 54043.488281
-25911.900391 16213.239258 54251.992188
-27674.191406 15382.958008 53727.144531
-27927.554688 15966.666016 54190.515625
5186.960938 45323.824219 32463.119141
4419.931152 45223.003906 32899.132812
4305.604980 45656.847656 32042.847656
4798.096191 45880.738281 31469.476562
4691.557129 44777.906250 33670.667969
3485.718018 45698.765625 32171.833984
3642.918213 46086.519531 31207.980469
-5682.423828 42614.097656 42895.503906
-5290.843750 42992.460938 42370.531250
-40264.332031 34277.339844 52680.335938
-39345.156250 33923.343750 53174.222656
-40623.980469 34968.703125 51945.574219
-9950.037109 14061.617188 48739.117188
-10552.487305 13753.053711 48348.824219
-7873.486816 26480.517578 58960.648438
-8720.642578 26930.490234 59117.785156
-8508.978516 26413.269531 59061.324219
-33636.402344 11809.115234 40556.425781
-34096.148438 12042.410156 39634.320312
-34797.218750 12360.163086 39162.628906
-37596.273438 41586.242188 18498.748047
-37617.363281 41884.746094 19232.199219
-38071.539062 35093.023438 16403.755859
-7501.121094 48496.898438 35959.144531
-8511.296875 48346.925781 35873.347656
-8222.966797 48184.250000 36488.964844
-7420.575195 48236.050781 36747.140625
12495.067383 33769.488281 42847.386719
11544.975586 33119.312500 43448.437500
12299.422852 33021.812500 43707.898438
11743.442383 33706.980469 42713.480469
10719.570312 32581.982422 44144.519531
11617.144531 32576.228516 44156.992188
10884.404297 33370.347656 43066.625000
10450.997070 32927.382812 43637.394531
12366.541016 32552.367188 44502.566406
-46297.250000 37866.394531 24109.050781
-46521.167969 38347.414062 24772.853516
-11475.787109 43895.718750 7134.621094
-10565.041992 43601.156250 6946.293945
2617.381104 18602.171875 50003.804688
2387.140137 18086.140625 49743.128906
-29801.916016 10366.998047 34132.347656
-28838.787109 10140.106445 33523.773438
-13442.352539 28796.750000 59415.316406
-34668.109375 41686.394531 23932.662109
-14278.764648 40444.152344 8338.038086
-14436.828125 42008.640625 9981.593750
-41175.414062 26722.003906 51655.105469
-37593.554688 34422.492188 49136.937500
-38589.066406 34129.824219 49413.187500
-19645.861328 19326.712891 56067.367188
-5857.916016 26041.023438 54652.644531
-6136.463379 26908.187500 55408.039062
-8848.870117 31681.789062 58754.671875
-9385.255859 31827.058594 58535.898438
-9457.932617 32419.712891 58291.003906
2029.828979 45089.480469 38072.765625
-24396.041016 9570.562500 40001.144531
-24954.748047 9406.273438 39333.953125
-24913.478516 9361.580078 39956.789062
-24808.179688 9461.258789 38646.953125
-29592.763672 42959.222656 16034.301758
-30442.445312 42579.097656 15921.722656
-29778.511719 42510.796875 15381.205078
-28566.968750 43384.800781 16164.242188
-28932.578125 42945.304688 15496.275391
3302.825928 39752.738281 50582.765625
2757.944092 39676.441406 50674.695312
3415.486084 39406.664062 50632.093750
2968.270020 40090.074219 50555.535156
-27279.169922 15024.359375 21683.445312
-27931.603516 14881.690430 22180.787109
-36758.976562 15876.295898 24813.607422
-37538.546875 16231.951172 24633.826172
-36731.687500 15603.414062 24210.220703
-921.502991 26712.214844 50418.863281
4960.639160 43814.035156 35840.843750
-13972.457031 13381.125977 39564.136719
-13298.946289 13412.185547 39066.625000
-13517.109375 13667.838867 38162.746094
-14261.155273 13379.555664 40195.882812
-13055.419922 13373.829102 39932.156250
-41719.292969 39963.058594 44424.070312
-25332.828125 30271.980469 53541.082031
-6343.854980 24970.474609 57661.898438
-6962.101074 25202.466797 58217.277344
-38586.261719 16330.312500 49928.968750
-38861.109375 16963.664062 50179.347656
-1672.849976 15671.771484 28422.306641
-1799.085938 15664.573242 27599.089844
18000.964844 26756.210938 42576.214844
-13612.175781 13905.018555 37308.679688
-28042.783203 12433.271484 40007.304688
-28085.773438 12288.069336 39181.898438
-6941.055664 34859.605469 57905.074219
-6365.196289 34727.457031 58144.671875
-20214.160156 42655.597656 40056.160156
-16511.667969 16295.640625 54422.812500
9325.474609 40521.210938 26930.525391
-20018.660156 18239.648438 12281.921875
-19795.935547 18694.753906 11614.510742
-19983.392578 19544.087891 11071.469727
-19353.169922 18047.535156 12084.840820
-13098.180664 14415.111328 36385.093750
-13698.061523 14168.110352 36515.097656
-12945.451172 14089.073242 37218.082031
-44081.437500 32197.318359 19023.097656
-33680.769531 16241.443359 49665.390625
-33922.652344 15903.624023 48677.214844
12826.873047 31982.820312 45601.101562
-28779.566406 27160.488281 9047.981445
-29384.078125 26674.179688 9241.072266
-29507.396484 27371.537109 9051.176758
-27998.744141 27468.984375 8803.872070
-28936.126953 27987.472656 8909.071289
-29724.369141 28320.121094 8916.462891
-30232.693359 27656.523438 9362.585938
-29924.556641 26968.890625 9412.207031
-30196.427734 26472.333984 9675.032227
-8109.474121 43711.687500 38963.394531
-8764.589844 43432.480469 39291.054688
-8874.291016 43619.347656 38613.484375
-8152.960938 43432.738281 39711.281250
-9523.756836 43320.722656 38924.468750
-9015.045898 43792.171875 37882.964844
-9269.945312 43181.171875 39629.816406
-8828.646484 43078.968750 40088.117188
-39193.363281 27697.554688 17087.705078
-39576.191406 27048.042969 17775.375000
-38087.023438 42857.500000 24252.113281
-24822.865234 19931.539062 9675.757812
-23727.957031 10036.092773 48700.734375
488.893005 41165.816406 47213.644531
-14.237000 40446.714844 47739.937500
774.288025 41381.328125 46902.222656
-43311.457031 27474.595703 49158.109375
-42277.859375 40258.312500 39635.812500
-41601.851562 40450.339844 39636.535156
-41183.714844 40242.941406 40147.218750
-41639.261719 39913.382812 40577.117188
-26862.623047 39808.351562 9281.232422
2918.411865 25945.841797 49788.769531
2196.791016 25880.494141 50201.199219
2499.735107 25360.630859 50053.070312
4867.189941 15586.419922 23512.654297
5511.270996 15579.832031 23145.548828
3955.398193 15515.935547 23253.851562
4197.640137 15504.789062 24135.656250
4351.894043 15491.763672 22521.257812
-44032.464844 32915.617188 19051.771484
-44309.761719 33499.964844 19558.695312
-43751.421875 33651.292969 18831.820312
-27457.457031 11307.324219 27902.283203
-13668.618164 46549.558594 43635.023438
-7686.926758 49504.699219 28023.507812
-6879.214844 49571.417969 28008.904297
-7299.405273 49546.941406 27394.982422
-8271.888672 49442.000000 27190.228516
-7679.479980 49482.160156 28800.201172
-2560.153076 43582.246094 8466.291992
-3244.806885 43783.714844 8424.666016
-16617.871094 28320.570312 5226.147949
-16529.140625 27468.666016 5290.003906
-16221.327148 27899.681641 4841.904297
-16111.078125 28877.587891 4613.376953
-17108.078125 29168.044922 5585.478027
-16527.896484 29150.650391 5038.526855
-16452.400391 26598.937500 5431.831055
-16102.802734 27115.031250 4895.211426
-20798.769531 25891.894531 54660.718750
-20021.962891 25204.103516 54478.710938
-48678.152344 30497.001953 36552.808594
-24079.476562 21934.804688 58032.882812
-24340.902344 40471.511719 42320.878906
-42282.171875 16620.416016 31683.330078
-42531.691406 17040.958984 30879.912109
-43102.476562 17306.138672 31502.175781
-17511.001953 33279.503906 51981.269531
-6788.842285 45937.472656 32797.761719
-6412.332031 45878.843750 33599.335938
-7266.661133 45682.945312 33436.929688
10371.879883 46259.910156 33617.324219
11057.917969 45914.449219 33370.132812
1883.738037 17631.650391 49566.175781
1067.578003 43054.050781 48698.996094
-30028.884766 41820.726562 14291.208008
-30743.683594 41386.902344 14220.618164
-30398.417969 41990.019531 14932.144531
-29483.345703 42268.148438 14738.206055
-2069.870117 36013.914062 55864.308594
-44496.515625 36758.593750 47256.007812
-44128.187500 37313.906250 46767.066406
-18154.134766 28510.070312 54704.546875
-16740.796875 35820.132812 6600.048828
-17287.767578 35994.808594 6785.049805
-29916.599609 43044.652344 35993.312500
-29029.066406 43097.570312 36339.429688
7514.470215 41604.820312 35797.558594
7422.504883 40968.011719 36346.000000
14436.014648 42434.835938 31277.232422
15153.615234 41891.492188 31972.435547
15928.667969 41277.687500 32671.691406
-27374.496094 9691.308594 44683.835938
-27537.136719 15747.431641 20759.626953
-28133.070312 15753.423828 21039.396484
3188.839844 40798.925781 14095.194336
-18238.580078 40700.605469 10313.692383
-18290.705078 41143.023438 10950.347656
-16634.095703 22420.611328 6307.750977
-16411.710938 22846.951172 5946.463867
-15952.768555 22571.980469 5641.789062
-12196.722656 46666.250000 42778.230469
-39178.808594 23039.304688 16710.250000
-39100.824219 23633.626953 16122.700195
-38535.980469 23782.455078 15611.043945
-10575.886719 33143.480469 1290.078003
-10377.328125 34006.585938 1366.799927
-9622.680664 34507.402344 1383.802979
-12997.164062 16532.318359 12033.736328
-12258.229492 16770.742188 12047.929688
-12915.214844 16650.529297 12811.738281
-11656.880859 44529.890625 33892.769531
-11615.039062 44297.960938 34678.109375
-50055.222656 26992.382812 31683.324219
12587.256836 26507.074219 46215.210938
12080.156250 26879.626953 46628.910156
12514.174805 27565.185547 46402.875000
13013.799805 27073.035156 46073.894531
13304.533203 26231.070312 45903.390625
12851.474609 28137.697266 46282.417969
-44090.617188 16868.615234 34854.734375
-12333.851562 36363.578125 50695.769531
-12677.790039 36065.945312 50887.109375
