1881
-22454.0 20521.0 -8869.0
-21726.0 19225.0 -7380.0
-21951.0 20028.0 -7564.0
-39719.0 36925.0 984.0
-40418.0 36827.0 1255.0
-39531.0 37098.0 1747.0
-39600.0 36818.0 385.0
-40570.0 36599.0 415.0
-39009.0 37032.0 914.0
-41125.0 36703.0 1287.0
-40322.0 37053.0 2035.000122
-39720.0 37189.0 2748.0
-38569.0 37209.0 1544.0
-38926.0 37249.0 2277.0
-63106.0 14199.0 19612.0
-63501.0 13374.0 20013.0
-63034.0 14028.0 20798.0
-63573.0 13460.0 18889.0
-63246.0 14210.0 18460.0
-62593.0 14843.0 20572.0
-62668.0 15028.0 19610.0
-62855.0 14946.0 18653.0
-27372.0 15802.0 14961.0
-28165.0 16007.0 15610.0
-27508.0 15281.0 15681.0
-26494.0 15578.0 14325.0
-26972.0 16264.999023 14073.0
-26658.0 15041.0 15097.0
-27622.0 16637.0 14390.0
-28164.0 16655.0 14972.0
-58097.0 24379.0 14552.0
-57888.0 24326.0 15348.0
-57292.0 25044.0 15085.0
-58627.0 23671.0 14885.0
-57600.0 25117.0 14371.0
-58135.0 24769.0 13870.0
-58762.0 23999.0 14018.0
-58418.0 23477.0 15756.0
-59195.0 23197.0 14236.0
-59085.0 22914.0 15323.0
-42535.0 -31777.0 24938.0
-43224.0 -32078.0 24705.0
-42685.0 -31173.0 24241.0
-42518.0 -32312.0 25548.0
-41962.0 -31137.0 24833.0
-41839.0 -31672.0 25461.0
-43306.0 -30740.0 23256.0
-42504.0 -30292.0 23556.0
-43444.0 -31374.0 23803.0
-41933.0 -30452.0 24218.0
-43779.0 -31987.0 24191.0
-44100.0 -32762.001953 24790.0
-43345.0 -32775.0 25320.0
-56763.0 25779.0 14453.0
-55999.0 26369.0 14652.0
-56841.0 26150.0 13756.0
-56529.0 25611.0 15220.0
-57470.0 25621.0 13725.0
-55827.0 26842.0 14051.0
-55114.0 27066.0 14571.0
-55807.0 26048.0 15519.0
-55140.0 26637.0 15319.0
-46099.0 18351.0 -18541.0
-45719.0 19370.0 -17853.0
-45378.0 18849.0 -18737.0
-46632.0 18636.0 -17931.0
-45027.0 18246.0 -19430.0
-45974.0 17822.0 -19087.0
-46915.0 17791.0 -18298.0
-47406.0 18291.0 -17396.0
-46360.0 19245.0 -17377.0
-47072.0 18880.0 -17074.0
-43059.0 25783.0 -10823.0
-43409.0 25146.0 -11463.0
-43820.0 25243.0 -10950.0
-43713.0 25917.0 -10760.0
-43195.0 26311.0 -10132.0
-42629.0 25454.0 -11366.0
-42647.0 26522.0 -10122.0
-42364.0 26076.0 -10856.0
-42885.0 24939.0 -11861.0
-43569.0 24555.0 -12048.0
-42072.0 25276.0 -11991.0
-42523.0 24701.0 -12282.0
-43108.0 24342.0 -12465.0
-44086.0 24649.0 -11546.0
-43789.0 23966.0 -12656.0
-44236.0 24149.0 -12276.0
-35199.0 -37166.0 40540.0
-35015.0 -37216.0 39910.0
-34007.0 -36820.0 40678.0
-36178.0 -37256.0 40737.0
-36115.0 -37414.0 39965.0
-34900.0 -36906.0 41216.0
-35477.0 -37374.0 39180.0
-34364.0 -37048.0 39463.0
-33869.0 -36849.0 40002.0
-54784.0 -32888.0 32430.0
-54602.0 -33210.0 31447.0
-54131.0 -33211.0 32714.0
-55239.0 -32790.0 31777.0
-54983.0 -32571.0 33241.0
-55701.0 -32348.0 32490.001953
-30781.0 -34438.0 38711.0
-30950.0 -33973.0 37893.0
-30257.0 -33732.0 38733.0
-31508.0 -34751.0 38073.0
-31612.0 -35235.0 38609.0
-29879.0 -34019.0 39698.0
-30514.0 -34729.0 39525.0
-30515.0 -33275.0 37940.0
-31236.0 -33398.0 37025.0
-31814.0 -34506.0 37395.0
-31854.0 -34083.0 36803.0
-29810.0 -32970.0 38752.0
-29580.0 -33496.0 39562.0
-36693.0 34141.0 -7459.0
-36084.0 34309.0 -7096.0
-36231.0 33875.0 -8118.0
-37052.0 34379.0 -6744.0
-37005.0 33726.0 -8289.0
-37383.0 33972.0 -7562.0
-35598.0 34015.0 -7793.0
-35724.0 33596.0 -8806.0
-36529.0 33504.0 -8911.0
-54169.0 -29506.0 40963.0
-54933.0 -28834.0 41043.0
-31304.0 32837.0 -7252.0
-32097.0 33191.0 -7197.0
-31544.0 33303.0 -6420.0
-31363.0 32441.001953 -8154.999512
-31928.0 32787.0 -7979.0
-30639.0 32798.0 -6654.0
-32265.998047 33650.0 -6434.0
-30785.0 33208.0 -5985.0
-31924.0 33921.0 -5662.0
-31346.0 33740.0 -5521.0
-32892.0 33462.0 -7263.0
-32720.001953 33112.0 -7904.0
-32347.0 -5267.0 36695.0
-32481.998047 -4456.0 36969.0
-32523.998047 -5199.0 37265.0
-32307.998047 -4421.0 36305.0
-32451.0 -6008.0 37225.0
-32712.001953 -5248.0 37818.0
-32813.0 -4336.0 37758.0
-30984.0 -8670.0 34037.0
-30719.0 -9244.0 33427.0
-30917.0 -8295.0 33683.0
-31220.0 -7788.0 34275.0
-31223.0 -8666.0 34712.0
-30959.0 -9363.0 34252.0
-39788.0 11372.0 38136.0
-39267.0 11059.0 38534.0
-38796.0 11130.0 37435.0
-39485.0 11559.0 37134.0
-40286.0 11743.0 37658.0
-40763.0 11730.0 38578.0
-40286.0 11294.0 39075.0
-47412.0 21591.0 24115.0
-47020.0 22128.0 23261.0
-47728.0 22145.0 23491.0
-47739.0 21074.0 25015.0
-46915.0 21002.0 24667.0
-48305.0 22072.0 23849.0
-46657.0 21486.0 23903.0
-48093.0 21501.0 24537.0
-47606.0 22738.0 22766.0
-48342.0 22708.0 23050.0
-57018.0 7966.0 41660.0
-58086.0 7837.0 40708.0
-57894.0 7284.0 41513.0
-56033.0 8630.0 41903.0
-56619.0 8850.0 41135.0
-56902.0 7298.0 42484.0
-55966.0 8080.0 42550.0
-54911.0 8753.0 42690.0
-55239.0 9167.0 42003.0
-34137.0 -14518.0 44232.0
-34024.0 -15348.0 44371.0
-33795.0 -14737.0 43631.0
-34457.0 -14103.0 44673.0
-34460.0 -15106.0 45114.0
-34184.0 -13696.0 43861.0
-33387.0 -14933.0 42907.0
-33634.0 -14131.0 43082.0
-33595.0 -15633.0 43650.0
-33754.0 -16271.999023 44374.0
-34111.0 -15976.0 44945.0
-40557.0 22768.0 -17289.0
-39664.0 22722.0 -17896.0
-40277.0 22100.0 -18386.0
-41377.0 22648.0 -16597.0
-40501.0 23338.0 -16365.999023
-39660.0 23448.0 -16991.0
-41214.0 22060.0 -17813.0
-42004.0 21371.0 -18087.0
-42097.0 21976.0 -17153.0
-40913.0 21386.0 -18717.0
-60335.0 10588.0 33941.0
-60293.0 10067.0 34792.0
-59491.0 10884.0 34949.0
-59442.0 11393.0 34211.0
-60036.0 11232.0 33483.0
-60913.0 9876.0 33941.0
-60750.0 10692.0 33027.0
-21476.0 21684.0 4293.0
-21392.0 21848.0 3389.0
-21929.0 22187.0 3850.0
-22184.0 22193.0 4557.0
-21844.0 21750.0 4997.0
-21317.0 21224.0 5274.0
-20869.0 21255.0 3637.0
-20907.0 21141.0 4470.0
-39990.0 28577.0 -10993.0
-40276.0 29070.0 -10309.0
-39651.0 29512.0 -10770.0
-40696.0 27966.0 -10657.0
-40674.0 28514.0 -10202.0
-39328.0 29099.0 -11441.0
-39639.0 28222.0 -11819.0
-40369.0 27666.0 -11303.0
-41194.0 27261.0 -10810.0
-41276.0 27795.0 -10108.0
-68653.0 1037.0 14351.0
-68399.0 1851.0 13529.0
-68745.0 696.0 13619.0
-68471.0 1429.0 15078.0
-68346.0 1929.0 14478.0
-68904.0 99.0 14482.0
-68761.0 519.0 15119.0
-54257.0 -26012.0 9817.0
-53607.0 -25540.0 8987.0
-53300.0 -25892.0 9613.0
-54666.0 -26344.0 10588.0
-55146.0 -25898.0 9809.0
-53672.0 -26409.0 10620.0
-54645.0 -25570.0 9045.0
-54239.0 -26758.0 11371.0
-55231.0 -26642.0 11288.0
-55575.0 -26201.0 10577.0
-47588.0 -34968.0 38856.0
-48303.0 -34748.0 38388.0
-47641.0 -35161.0 38075.0
-47340.0 -34721.0 39828.0
-48140.0 -34543.0 39244.0
-47026.0 -35084.0 39276.0
-46889.0 -35439.0 38400.0
-48304.0 -35054.0 37363.0
-47427.0 -35496.0 37448.0
-48968.0 -34279.0 38797.0
-48931.0 -34584.0 37956.0
-65970.0 -18848.0 10419.0
-66281.0 -18023.0 9744.0
-65911.0 -18595.0 9416.0
-66198.0 -18732.0 11292.0
-66437.0 -18020.0 10665.0
-65664.0 -19620.0 11149.0
-65487.0 -19457.0 10012.0
-43217.0 12758.0 38414.0
-42584.0 12391.0 38942.0
-42307.0 12509.0 37964.0
-43058.0 12977.0 37516.0
-44137.0 13354.0 37807.0
-43604.0 12733.0 39300.0
-44175.0 13044.0 38775.0
-51230.0 33643.0 5993.0
-51778.0 33197.0 6251.0
-51379.0 33553.0 7026.0
-50508.0 34021.0 5867.0
-51137.0 33480.0 5177.0
-50730.0 33977.0 6708.0
-51826.0 33037.0 5407.0
-52069.0 33024.0 6942.0
-51772.0 33180.0 7762.0
-51053.0 33549.0 8118.0
-50770.0 33862.0 7595.0
-52440.0 32655.998047 6018.0
-63583.0 13616.0 17688.0
-63105.0 14618.0 17608.0
-63339.0 14241.0 16710.0
-63728.0 13340.0 16423.0
-63889.0 12956.0 17414.0
-63904.0 12763.0 18607.0
-63899.0 12581.0 19664.0
-28491.0 -24398.0 44215.0
-28257.0 -24790.0 43742.0
-27437.0 -23808.0 43419.0
-28592.0 -25407.0 44427.0
-28370.0 -23669.0 44309.0
-28737.0 -24873.0 44820.0
-28306.0 -23558.0 43621.0
-28832.0 -25740.0 45132.0
-28970.0 -24963.0 45366.0
-28167.0 -9501.0 27904.0
-27850.0 -10359.0 27588.0
-27713.0 -9554.0 27056.0
-28611.0 -9832.0 28955.0
-28174.0 -10162.0 28311.0
-27977.0 -8894.0 27149.0
-28370.0 -8568.0 27662.0
-28597.0 -8983.0 28414.0
-28357.0 -11070.0 28183.0
-28426.0 -11366.0 27236.0
-27253.0 -10867.0 27249.0
-27438.0 -10223.0 26774.0
-27231.0 -9634.0 26247.0
-27417.0 -9020.0 26221.0
-27688.0 -8604.0 26457.0
-65300.003906 -22076.0 30995.0
-64732.003906 -22778.0 31544.0
-65232.003906 -21682.0 31999.0
-64933.0 -22864.0 30607.0
-65665.0 -21191.0 31353.0
-65779.0 -21516.0 30226.0
-55841.0 -25583.0 43950.0
-55082.0 -26526.0 43747.0
-55087.0 -25748.0 44556.0
-56598.0 -25773.0 42905.0
-55907.0 -26212.0 43206.0
-56668.0 -25042.0 43656.0
-55656.0 -24698.0 45026.0
-56345.0 -24610.0 44396.0
-54040.0 -26462.0 44814.0
-54172.0 -25877.0 45271.0
-54497.0 -26678.0 44202.0
-54897.0 -25198.0 45282.0
-55455.0 -26941.0 42888.0
-54325.0 -27443.0 43514.0
-54808.0 -27469.0 42932.0
-65761.0 1456.0 33824.0
-65953.0 1824.0 32762.001953
-66321.0 762.0 33114.0
-66020.0 520.0 34135.0
-65683.0 1021.0 34626.0
-65193.0 1992.0 34674.0
-65462.996094 2323.0 33587.0
-50251.0 15175.0 37214.0
-51024.0 15823.0 35923.0
-50954.0 15069.0 37196.0
-50135.0 15589.0 36491.0
-50051.0 14621.0 38169.0
-51153.0 14505.0 38126.0
-51821.0 14985.0 37004.0
-51824.0 14198.0 38271.0
-50295.0 14156.0 38918.0
-50778.0 13679.0 39491.0
-52739.0 14429.0 37332.0
-51692.0 15603.0 36034.0
-52548.0 14978.0 36607.0
-52615.0 13849.0 38294.0
-51653.0 13485.0 39395.0
-32743.0 -33709.0 35477.0
-33461.0 -34267.0 35309.0
-33405.0 -33511.0 34762.0
-32547.0 -33073.0 35232.0
-31939.0 -33096.0 35906.0
-32011.001953 -33667.0 36245.0
-32724.998047 -34285.0 35948.0
-33404.0 -34880.0 36050.0
-34043.0 -34826.0 35487.0
-33909.0 -34033.0 34804.0
-34258.0 -33346.0 34132.0
-33691.0 -32922.0 34230.0
-33068.0 -32869.0 34664.0
-35378.0 -4785.0 44364.0
-35348.0 -3988.0 44547.0
-35615.0 -4378.0 45119.0
-35180.0 -4368.0 43942.0
-35602.0 -5174.0 45010.0
-35147.0 -5073.0 43613.0
-35391.0 -5511.0 44304.0
-20685.0 15952.0 -5108.0
-20726.0 14985.0 -5424.0
-20930.0 15638.0 -6031.0
-20372.0 15994.0 -3961.0
-20490.0 15039.0 -4597.0
-21055.0 16559.0 -6327.0
-20886.0 17042.0 -5496.0
-20630.0 16691.0 -4613.0
-35793.0 13208.0 26662.0
-36234.0 13739.0 26077.0
-36467.0 13611.0 26988.0
-35936.0 13028.0 27511.0
-35137.0 12672.0 26728.0
-35340.0 13122.0 25955.0
-37199.0 14105.0 27149.0
-36784.0 13554.0 27813.0
-36945.0 14246.0 26339.0
-35775.0 13725.0 25345.0
-36533.0 14310.0 25495.0
-62144.0 -24339.0 13650.0
-61315.0 -25142.0 14157.0
-62146.0 -24663.0 14507.0
-61422.0 -24399.0 12488.0
-61434.0 -24735.0 13330.0
-62264.0 -23901.0 12814.0
-62773.0 -24057.0 14361.0
-62938.0 -23616.0 13547.0
-32994.0 -4975.0 38512.0
-32850.0 -5661.0 38360.0
-32557.0 -6158.0 37850.0
-32961.0 -4406.0 38287.0
-30012.0 32193.0 4447.0
-29475.0 31649.0 4486.0
-29373.0 32134.998047 3851.0
-30752.0 32425.0 5135.0
-30191.0 31795.0 5144.0
-29949.0 32815.0 3742.0
-30485.0 32779.0 4407.0
-31093.0 33172.0 4667.0
-30719.0 33496.0 3870.0
-51272.0 32210.0 10661.0
-50737.0 32685.001953 10621.0
-51198.0 32636.001953 10013.0
-51904.0 31954.0 10101.0
-51713.0 31629.0 10799.0
-51371.0 31499.0 11391.0
-50696.0 32312.0 11272.0
-52435.0 31784.0 9464.0
-52271.0 31466.0 10385.0
-51764.0 32361.0 9668.0
-30062.0 -34057.0 45026.0
-31182.0 -34389.0 45128.0
-30591.0 -34636.0 44410.0
-30534.0 -33765.0 45580.0
-29692.0 -34337.0 44259.0
-29197.0 -33700.0 44888.0
-29651.0 -33291.0 45702.0
-31422.0 -35272.0 43614.0
-30419.0 -34915.0 43582.0
-31506.0 -34976.0 44287.0
-41750.0 20966.0 -18841.0
-41462.0 20573.0 -19349.0
-42469.0 20582.0 -18799.0
-29012.0 -19470.0 38051.0
-28459.0 -20054.0 37699.0
-28782.0 -19217.0 37336.0
-29595.0 -18951.0 38518.0
-29001.0 -19947.0 38596.0
-29385.0 -18738.0 37957.0
-32148.998047 -2919.0 35840.0
-32054.0 -2134.0 35714.0
-32465.0 -2683.0 36631.0
-32047.0 -4060.0 35446.0
-31956.0 -2940.0 35202.0
-32244.0 -3615.0 36084.0
-67404.0 3123.0 23561.0
-67341.0 3064.0 24494.0
-67028.0 3956.0 23753.0
-67526.0 3009.0 22633.0
-67746.0 2262.0 23552.0
-67770.0 1892.0 24377.0
-68036.0 1621.0 22720.0
-68125.0 1053.0 23853.0
-29339.0 -18476.0 37493.0
-29910.0 -17973.0 38078.0
-29578.0 -17917.0 37216.0
-29008.0 -18561.0 36897.0
-30046.0 -17406.0 37622.0
-30431.0 -17139.0 38184.0
-30393.0 -17731.0 38739.0
-30053.0 -18442.0 38792.0
-58904.0 6884.0 40741.0
-58247.0 6660.0 41780.0
-58934.0 7841.0 39681.0
-59724.0 6744.0 39838.0
-59693.0 5846.0 40858.0
-69802.0 -7208.0 24990.0
-69940.0 -7355.0 23927.0
-69888.0 -8132.0 24744.0
-69748.0 -7778.0 26027.0
-69642.0 -6876.0 26018.0
-69670.0 -6258.0 25270.0
-69801.0 -6422.0 24225.0
-51425.0 -33010.0 38517.0
-51538.0 -33227.0 37644.0
-50815.0 -33587.0 37950.0
-52274.0 -32693.0 37936.0
-50356.0 -33631.0 38538.0
-50815.0 -33221.0 39098.0
-51481.0 -32585.998047 39459.0
-52147.0 -32353.0 38929.0
-52972.0 -32044.998047 38376.0
-52909.0 -31647.0 39243.0
-52272.0 -31822.0 39860.0
-27005.0 30148.0 -7406.0
-26469.0 29294.0 -7972.0
-27317.0 29865.0 -8473.0
-26315.0 29656.0 -7080.0
-27623.0 30564.0 -7642.0
-27382.0 30997.0 -6420.0
-26745.0 30449.0 -6413.0
-31711.0 18903.0 -19972.0
-31705.0 17866.0 -20064.0
-32314.0 18275.0 -20389.0
-31563.0 19792.0 -19725.0
-30887.0 18987.0 -19571.0
-32584.0 19301.0 -20286.0
-42224.0 -29646.0 49136.0
-41921.0 -30602.0 48507.0
-41050.0 -30165.0 49203.0
-42323.0 -28630.0 49834.0
-42969.0 -28965.0 49300.0
-43718.0 -29405.0 48674.0
-42740.0 -30132.0 48543.0
-41590.0 -29066.0 49810.0
-40952.0 -29519.0 49728.0
-69882.0 -11180.0 24481.0
-69749.0 -11993.0 24953.0
-69789.0 -10831.0 25324.0
-69953.0 -10309.0 24016.0
-69897.0 -10995.0 23221.0
-69840.0 -11909.0 23769.0
-69594.0 -12927.0 25427.0
-69681.0 -12225.0 25922.0
-69657.0 -12760.0 24166.0
-69774.0 -11225.0 26019.0
-36040.0 -30076.0 50325.0
-35460.0 -29204.0 50860.0
-36541.0 -29675.0 50604.0
-35118.0 -30087.0 50217.0
-34786.0 -29478.0 50584.0
-36096.0 -30753.0 49795.0
-37221.0 -30780.0 49722.0
-36123.0 -28688.0 51220.0
-34325.0 -28420.0 51049.0
-35114.0 -28411.0 51244.0
-37123.0 -29133.0 50954.0
-37691.0 -30035.0 50249.0
-35312.0 -27776.0 51596.0
-36381.0 -28077.0 51566.0
-36829.0 -27469.0 51861.0
-37547.0 -28338.0 51383.0
-35566.0 -27227.0 51871.0
-63268.0 -4164.0 -11998.0
-63783.0 -4273.0 -11303.0
-63181.0 -3220.0 -11827.0
-62741.0 -3638.0 -12626.0
-62816.0 -4757.0 -12673.0
-63476.0 -5096.0 -11867.0
-62614.0 -2637.0 -12404.0
-62113.0 -2941.0 -13202.0
-62138.0 -4035.999756 -13346.0
-64047.996094 -16167.999023 -602.0
-64306.0 -16393.0 436.0
-64595.0 -15704.0 36.0
-64499.0 -15322.0 -1059.0
-63891.0 -15963.0 -1548.0
-63714.0 -16910.0 -211.0
-63395.0 -16815.0 -1205.0
-65268.996094 -14890.0 411.0
-64931.0 -15055.0 -315.0
-65057.0 -15534.0 992.0
-64745.003906 -16204.0 1361.0
-64017.0 -17016.0 929.0
-63809.0 12970.0 12024.0
-63863.0 12898.0 11142.0
-64120.003906 12072.0 11318.0
-64049.003906 12323.0 12495.0
-63691.0 13374.0 12875.0
-63508.0 14031.0 12326.0
-63587.0 13778.0 11435.0
-63994.0 12538.0 10298.0
-63683.0 13538.0 10528.0
-44472.0 27637.0 -7674.0
-44203.0 27251.0 -8151.0
-30308.0 1072.0 31743.0
-29977.0 1633.0 31141.0
-30072.0 1855.0 31852.0
-30612.0 194.0 32159.0
-30468.0 141.0 31482.0
-30239.0 904.0 31117.0
-30379.0 1089.0 32226.001953
-55040.0 8935.0 -16341.0
-54294.0 9485.0 -16757.0
-54505.0 8605.0 -17149.0
-55787.0 8523.0 -15752.0
-55460.0 9386.0 -15561.0
-54925.0 9980.0 -15707.0
-55043.0 8048.000488 -16882.0
-55680.0 7874.0 -16278.0
-53780.0 8799.0 -17680.0
-54196.0 7913.0 -17785.0
-54442.0 10581.0 -15876.0
-53802.0 10330.0 -16754.0
-53546.0 9642.0 -17407.0
-18612.0 13415.0 903.0
-18475.0 13247.0 1474.0
-18683.0 12345.0 699.0
-18890.0 12587.0 -47.0
-18819.0 13646.0 232.0
-18689.0 14279.0 821.0
-18469.0 14058.0 1688.0
-18469.0 11765.0 1345.0
-18681.0 11339.0 569.0
-18480.0 12570.0 1480.0
-18896.0 11699.0 -134.0
-18285.0 13434.0 2234.0
-69974.0 -8675.0 20218.0
-69967.0 -9476.0 20804.0
-70005.0 -8874.0 21565.0
-69906.0 -9648.0 19770.0
-69989.0 -7752.0 20318.0
-69963.0 -7992.0 19256.0
-70019.0 -8027.000488 21298.0
-69924.0 -8875.0 18982.0
-58734.0 24381.0 13221.0
-58061.0 25203.0 13226.0
-59185.0 23808.0 13193.0
-59188.0 24324.0 12218.0
-58607.0 24797.0 12695.0
-58509.0 14313.0 -7577.0
-57811.0 14604.0 -8137.0
-58645.0 13475.0 -8005.999512
-59259.0 14191.0 -6767.0
-58491.0 15032.0 -7060.0
-57814.0 15587.0 -7389.0
-57427.0 15496.0 -7904.0
-59341.0 13456.0 -7236.0
-58793.0 15261.0 -6482.0
-57701.0 16284.0 -7006.0
-34911.0 -4374.0 43308.0
-34975.0 -3755.0 43723.0
-33952.0 37126.0 898.0
-34807.0 37259.0 759.0
-34851.0 37294.0 1628.0
-34149.0 36989.0 106.0
-33968.0 37108.0 1764.0
-33315.0 36855.0 1210.0
-33245.0 36731.0 227.0
-34987.0 37130.0 -25.0
-33856.0 36691.0 -540.0
-34864.0 36830.0 -669.0
-46278.0 22183.0 22854.0
-46142.0 20797.0 24502.0
-45967.0 21427.0 23649.0
-46864.0 22823.0 22375.0
-45507.0 21806.0 23067.0
-45598.0 22472.0 22302.0
-46098.0 22879.0 22029.0
-28780.0 18118.0 14684.0
-28922.0 17498.0 15337.0
-28431.0 17335.0 14727.0
-28075.0 17493.0 14133.0
-45531.0 -809.0 51974.0
-44977.0 -1526.0 52242.0
-44412.0 -1014.000061 51953.0
-46512.0 -370.0 51788.0
-46330.0 -1287.0 52161.0
-45401.0 -81.0 51626.0
-47179.0 -27753.0 48160.0
-47117.0 -28591.0 47642.0
-46368.0 -28292.0 48233.0
-48057.0 -28338.0 47315.0
-47072.0 -27104.0 48646.0
-48095.0 -27480.0 47879.0
-45968.0 -27533.0 48922.0
-46747.0 -29320.0 47328.0
-45822.0 -29233.0 47843.0
-45462.0 -28444.0 48543.0
-47767.0 -29150.0 46904.0
-47265.0 121.0 51460.0
-47429.0 -882.0 51876.0
-46373.0 497.0 51356.0
-48823.0 -1108.0 51649.0
-48269.0 -1805.0 52050.0
-47210.0 -2006.0 52330.0
-48367.0 -254.000015 51384.0
-47245.0 1141.0 50931.0
-48056.0 649.0 51034.0
-68439.0 -2650.0 29295.0
-68402.0 -1893.0 28625.0
-68641.0 -2832.0 28399.0
-68690.0 -3616.0 29059.0
-68421.0 -3229.0 30027.0
-68169.0 -2391.0 30319.0
-68176.0 -1882.0 29544.0
-68169.0 -3160.0 30963.0
-68627.0 -4155.0 30023.0
-68334.0 -4084.0 31067.0
-48785.0 -18721.0 51687.0
-48870.0 -19653.0 51342.0
-48182.0 -19154.0 51829.0
-48628.0 -17833.0 51983.0
-49396.0 -18391.0 51476.0
-50072.0 -18967.0 51007.0
-47833.0 -19950.0 51739.0
-49795.0 -19737.0 50871.0
-49314.0 -20676.0 50772.0
-48332.0 -20651.0 51295.0
-43582.0 -35279.0 28999.0
-44130.0 -35108.0 28241.0
-42981.0 -34956.0 28697.0
-42647.0 -35190.0 29492.0
-43440.0 -35568.0 29742.0
-44622.0 -35791.0 29649.0
-44608.0 -35489.0 28833.0
-67868.0 -18125.0 27445.0
-67465.0 -18936.0 27723.0
-67793.0 -18049.0 28413.0
-68120.0 -17416.0 27515.0
-67868.0 -18366.0 26753.0
-58669.0 -26898.0 14336.0
-58080.0 -27352.0 14808.0
-58899.0 -27230.0 15345.0
-59293.0 -26327.0 13971.0
-58557.0 -26407.0 13367.0
-59285.0 -26685.0 14821.0
-58002.0 -26927.0 13757.0
-57385.0 -27400.0 14173.0
-57152.0 -27062.0 13262.0
-57885.0 -26504.0 12771.0
-64628.996094 -19169.0 36497.0
-64963.996094 -17969.0 36784.0
-65277.0 -18435.0 35906.0
-64859.0 -19773.0 35582.0
-64279.0 -20400.0 36131.0
-64491.996094 -18438.0 37382.0
-64026.0 -19241.0 37596.0
-64089.996094 -19898.0 36939.0
-64573.996094 -17597.0 37785.0
-65218.003906 -16957.0 37081.0
-65658.0 -17233.0 36069.0
-65670.0 -18339.0 35115.0
-65337.996094 -19300.0 35007.0
-43705.0 25634.0 18897.0
-67553.0 -18163.0 18031.0
-67568.0 -17937.0 17181.0
-67155.0 -18744.0 17050.0
-67133.0 -19091.0 18145.0
-67575.0 -18440.0 19016.0
-67907.0 -17592.0 18746.0
-67928.0 -17079.0 17465.0
-67108.0 -18517.0 16153.999023
-67652.0 -17525.0 16489.0
-28076.0 -31086.0 45955.0
-28489.0 -30465.0 46326.0
-28904.0 -31226.0 46520.0
-27422.0 -30736.0 45225.0
-27818.0 -30311.0 45822.0
-28702.0 -31781.0 46205.0
-28080.0 -31943.0 45668.0
-27652.0 -31362.0 45418.0
-27561.0 -31933.0 44975.0
-27251.0 -31168.0 44778.0
-69572.0 -7083.0 27161.0
-69630.0 -8295.0 27076.0
-69457.0 -7634.0 27981.0
-69282.0 -6647.0 28602.0
-69423.0 -6142.0 27306.0
-32164.001953 -9720.0 38073.0
-32008.0 -10487.0 37916.0
-31806.0 -10486.0 37325.0
-31812.0 -9812.0 37167.0
-32227.001953 -10413.0 38561.0
-32263.0 -8744.0 38134.0
-32417.0 -9535.0 38687.0
-32055.0 -9247.0 37658.0
-32726.001953 -8979.0 39286.0
-32650.001953 -9806.0 39314.0
-32514.0 -8707.0 38721.0
-64788.003906 -12706.0 39614.0
-64261.0 -12259.0 40652.0
-64675.003906 -11914.0 40022.0
-64081.0 -13486.0 40605.0
-65383.003906 -12650.0 38666.0
-65156.996094 -13608.0 38769.0
-64584.0 -13669.0 39674.0
-65038.003906 -11441.0 39525.0
-64532.996094 -11037.0 40474.0
-63694.0 -12308.0 41571.0
-64002.0 -11205.0 41329.0
-52410.0 27491.0 16771.0
-51753.0 27547.0 17139.0
-51558.0 28135.0 16390.0
-53306.0 26987.0 16716.0
-53043.0 26789.0 17329.0
-52974.0 27481.0 16301.000977
-52371.0 27002.0 17597.0
-52231.0 27974.0 16042.999023
-53056.0 27801.0 15692.0
-51626.0 28605.0 15628.0
-52487.0 28328.0 15364.0
-52633.0 27000.0 -2078.0
-53134.0 26433.0 -2389.0
-53369.0 26545.0 -1671.0
-53098.0 27175.0 -1289.0
-52337.0 27562.0 -1697.0
-52269.0 26752.0 -2829.0
-52638.0 26371.0 -2814.0
-51915.0 27571.0 -2154.0
-52067.0 27309.0 -2738.0
-44848.0 13434.0 38367.0
-45259.0 13962.0 37491.0
-45579.0 13566.0 38698.0
-45089.0 13178.0 39257.0
-53645.0 -1260.0 -18956.0
-54371.0 -1876.0 -18617.0
-54511.0 -671.0 -18752.0
-53556.0 -120.0 -19183.0
-53053.0 -791.0 -19265.0
-52673.0 -1651.0 -19217.0
-53450.0 -2287.0 -18840.0
-55182.0 -2098.0 -18263.0
-55409.0 -1159.0 -18289.0
-54840.0 -3063.0 -18208.0
-54071.0 -3019.0 -18501.0
-54149.0 554.0 -19039.0
-54949.0 301.0 -18621.0
-55730.0 -319.0 -18243.0
-70012.0 -9174.0 22853.0
-69969.0 -9178.0 24119.0
-69976.0 -8376.0 23588.0
-69998.0 -8262.0 22419.0
-69986.0 -9787.0 21916.0
-69947.0 -10056.0 23041.0
-69958.0 -7609.0 23069.0
-62794.0 -76.0 -10681.0
-62757.0 572.0 -10167.0
-57014.0 5284.0 -15997.0
-57463.0 4712.0 -15750.0
-57556.0 5457.0 -15258.0
-56768.0 6027.0 -16044.000977
-56856.0 4544.0 -16494.0
-56368.0 5285.0 -16673.0
-23328.0 -8899.0 20188.0
-53742.0 -23529.0 47281.0
-53788.0 -22691.0 47715.0
-54745.0 -23054.0 46924.0
-54295.0 -24020.0 46620.0
-53155.0 -24443.0 47034.0
-52714.0 -23141.0 48047.0
-52675.0 -23925.0 47642.0
-51544.0 -23934.0 48246.0
-51924.0 -24620.0 47641.0
-61687.0 7289.0 -7960.0
-61742.0 6376.0 -8163.999512
-62209.0 6527.0 -7295.0
-62160.0 7234.0 -7142.0
-61736.0 8128.000488 -7432.0
-61316.0 7983.0 -8175.999512
-60995.0 7354.0 -8938.0
-61433.0 6803.0 -8573.0
-62658.0 6906.0 -6354.0
-62046.0 5908.0 -7841.0
-62573.0 5848.0 -6926.0
-62857.0 6166.0 -6258.0
-61211.0 6339.0 -9090.0
-61638.0 5564.0 -8738.0
-68672.0 -14986.0 17196.0
-68502.0 -15728.0 17915.0
-68797.0 -14872.0 18195.0
-69011.0 -14117.0 17861.0
-68339.0 -15949.0 17072.0
-68821.0 -14352.0 16554.0
-68380.0 -15337.0 16334.0
-69044.0 -14454.0 18995.0
-68679.0 -15596.0 18787.0
-32113.998047 -18746.0 30437.0
-32412.998047 -19618.0 29891.0
-32203.0 -18895.0 29571.0
-32053.001953 -18762.0 31283.0
-32268.001953 -19423.0 30670.0
-31921.0 -18102.0 30005.0
-31866.0 -17944.0 31067.0
-32183.998047 -19496.0 31540.0
-32467.998047 -20255.0 30749.0
-54973.0 26152.0 42.0
-54952.0 25475.0 -351.0
-55589.0 25767.0 645.0
-55447.0 26576.0 928.0
-54420.0 25966.0 -749.0
-54431.0 26630.0 -262.0
-54976.0 27033.0 631.0
-42276.0 34158.0 -3865.0
-41468.0 34372.0 -4254.0
-42284.0 33764.0 -4450.0
-42985.0 33632.0 -3866.0
-41801.0 34684.0 -3497.0
-42746.0 34173.0 -3418.0
-43197.0 33109.0 -4241.0
-41683.0 33695.0 -5045.0
-42586.0 33056.0 -4953.0
-41071.0 35044.0 -3406.0
-40612.0 34784.0 -4098.0
-40825.0 34324.0 -4813.0
-59596.0 -30210.0 26044.0
-60406.0 -29447.0 26169.0
-59713.0 -30041.0 25063.0
-59929.0 -29914.0 27040.0
-58913.0 -30804.0 25606.0
-59073.0 -30668.0 26735.0
-63022.0 -15304.0 41568.0
-62782.0 -16188.999023 41571.0
-62167.0 -15918.0 42615.0
-62685.0 -14693.0 42326.0
-63445.0 -14385.0 41325.0
-63669.0 -15107.0 40601.0
-63382.0 -16202.999023 40558.0
-62890.0 -17042.0 40947.0
-62220.0 -16970.0 42027.0
-33494.0 -35305.0 36551.0
-34285.0 -35672.0 36416.0
-32560.001953 -34741.0 36710.0
-34344.0 -35319.0 35854.0
-35118.0 -35332.0 35379.0
-34640.0 -34680.0 34942.0
-58416.0 -30962.0 29632.0
-58936.0 -30335.0 30663.0
-59263.0 -30237.0 29606.0
-58772.0 -30815.0 28726.0
-57883.0 -31547.0 28862.0
-57609.0 -31627.0 29751.0
-58123.0 -31046.0 30541.0
-58154.0 -31392.0 28065.0
-57407.0 -31959.0 27767.0
-57086.0 -32092.998047 28930.0
-66202.0 -9900.0 37744.0
-66654.0 -9509.0 36856.0
-66645.0 -10543.0 36838.0
-66190.0 -11133.0 37591.0
-65821.0 -10481.0 38363.0
-65733.0 -9260.0 38578.0
-66225.0 -8757.0 37737.0
-34414.0 36769.0 3256.0
-33635.0 36452.0 3203.0
-34223.0 36969.0 2649.0
-35177.0 36929.0 3471.0
-34332.0 36460.0 3807.0
-35160.0 37154.0 2897.0
-30082.0 -13803.0 32176.998047
-30274.0 -14051.0 31509.0
-29364.0 -13206.0 31857.0
-30482.0 -14559.0 32321.0
-29718.0 -13253.0 32521.0
-29686.0 -14027.0 32728.0
-29785.0 -13427.0 31269.0
-30575.0 -14503.0 30896.0
-29987.0 -13719.0 30495.0
-30657.0 -14745.0 31637.0
-29354.0 -12610.0 31630.0
-29696.0 -12211.0 32178.001953
-32783.0 846.0 41664.0
-32075.0 1151.0 41768.0
-32965.0 633.0 42155.0
-33387.0 1644.0 42287.0
-33029.0 63.0 41583.0
-32882.0 1607.0 41593.0
-32592.0 983.0 41115.0
-32794.0 311.0 41122.0
-33810.0 2671.0 42480.0
-33928.0 2293.0 42810.0
-33627.0 1203.0 42794.0
-33503.0 2473.0 41927.0
-33305.0 265.0 42691.0
-33256.0 -62.0 42162.0
-24715.0 -8715.0 21951.0
-25459.0 -9530.0 21663.0
-24701.0 -9140.0 21198.0
-25530.0 -9367.0 22382.0
-24175.0 -8184.0 21690.0
-24765.0 -8703.0 22622.0
-24779.0 -7945.0 22341.0
-25590.0 -10037.0 21051.0
-24971.0 -9859.0 20703.0
-23988.0 -8503.0 21148.0
-24057.0 -9254.0 20570.0
-23372.0 -8781.0 21271.0
-26232.0 -10391.0 21527.0
-26279.0 -10184.0 22238.0
-54766.0 -24236.0 6390.0
-55046.0 -23977.0 5701.0
-54006.0 -23908.0 5670.0
-53998.0 -24311.0 6528.0
-54789.0 -24583.0 7149.0
-55653.0 -24286.0 6607.0
-54260.0 -24916.0 7748.0
-55068.0 -24860.0 7700.0
-55751.0 -24807.0 7629.0
-53711.0 -24638.0 7223.0
-67690.0 -14753.0 32988.0
-67574.0 -16007.0 32416.0
-67359.0 -15519.0 33402.0
-67883.0 -15583.0 31839.0
-68116.0 -14846.0 31711.0
-67736.0 -13701.0 33420.0
-68080.0 -14084.0 32337.001953
-67193.0 -14560.0 34343.0
-23224.0 -5871.0 20430.0
-23073.0 -5111.0 20125.0
-23678.0 -5504.0 20634.0
-23624.0 -6411.0 20859.0
-22984.0 -6461.0 20388.0
-22718.0 -5650.0 19991.0
-22757.0 -4342.0 19739.0
-23311.0 -4380.0 20130.0
-23605.0 -4909.0 20474.0
-22499.0 -4957.0 19684.0
-24233.0 -5159.0 20945.0
-24118.0 -5927.0 21011.0
-62231.0 -22059.0 38296.0
-61810.0 -21670.0 39431.0
-62317.0 -21159.0 39000.0
-62355.0 -22485.0 37590.0
-61439.0 -23184.0 38532.0
-62885.0 -21154.0 37997.0
-61599.0 -22451.0 39030.0
-62248.0 -20252.0 39915.0
-62805.0 -20262.0 38938.0
-61814.0 -20892.0 40093.0
-61385.0 -21541.0 40303.0
-61180.0 -22289.0 39920.0
-29803.0 14709.0 -18188.0
-29248.0 15165.0 -17854.0
-29302.0 14272.0 -17614.0
-29679.0 15634.0 -18337.0
-30319.0 15183.0 -18714.0
-30293.0 13823.0 -18336.0
-30465.0 14465.0 -18650.0
-28701.0 14999.0 -17316.0
-28520.0 14392.0 -16992.0
-29586.0 13601.0 -17688.0
-28884.0 15847.0 -17744.0
-35484.0 -36197.0 43244.0
-35557.0 -36587.0 42349.0
-34637.0 -36255.0 42877.0
-34663.0 -35860.0 43775.0
-36357.0 -36147.0 43405.0
-36300.0 -36526.0 42691.0
-35692.0 -35836.0 44027.0
-33668.0 -35789.0 43650.0
-33684.0 -36332.0 42315.0
-33482.0 -36007.0 43000.0
-34781.0 -36618.0 42007.0
-36595.0 -36808.0 41948.0
-35848.0 -36929.0 41516.0
-65614.0 8068.0 10291.0
-65947.0 7289.0 10231.0
-65864.0 7455.0 10951.0
-65568.0 8209.0 11250.0
-65846.0 7397.0 9405.0
-65275.0 8802.0 10439.0
-65398.003906 8429.0 9433.0
-48922.0 34719.0 7735.0
-49618.0 34524.0 7495.0
-49312.0 34533.0 8305.0
-48316.0 34974.0 7882.0
-48483.0 34950.0 7139.0
-48541.0 34741.0 8520.0
-49086.0 34713.0 7010.0
-47227.0 -20554.0 51843.0
-47427.0 -21414.0 51428.0
-46519.0 -21379.0 51875.0
-46478.0 -20700.0 52146.0
-28404.0 -5475.0 26748.0
-28895.0 -5366.0 27576.0
-28637.0 -6101.0 27214.0
-28061.0 -5633.0 26086.0
-28113.0 -4779.0 26067.0
-28534.0 -4742.0 26799.0
-28171.0 -6262.0 26453.0
-28980.0 -6196.0 27958.0
-28535.0 -6857.0 27230.0
-29355.0 -4630.0 28359.0
-29380.0 -5457.0 28557.0
-28952.0 -4610.0 27615.0
-62287.0 19613.0 5910.0
-61785.0 20427.0 5117.0
-61991.0 19867.0 4648.0
-62335.0 19729.0 6855.0
-61964.0 20420.0 6160.0
-62437.0 19171.0 5244.0
-62755.0 18526.0 6013.0
-62669.0 18782.0 6860.0
-61840.0 20817.0 6792.0
-62141.0 20152.0 7628.0
-62534.0 19262.0 7677.0
-35234.0 -23771.0 25891.0
-34688.0 -23151.0 26068.0
-34695.0 -23634.0 27071.0
-35648.0 -24597.0 26367.0
-35795.0 -24090.0 25247.0
-35169.0 -24113.0 26698.0
-35227.0 -23441.0 25147.0
-34127.0 -22520.0 26407.0
-34323.0 -22976.0 26903.0
-34313.0 -22495.0 25507.0
-34750.0 -22877.0 25041.0
-34994.0 -24402.0 27535.0
-34209.0 -23247.0 27758.0
-34421.0 -23881.0 28160.0
-32273.998047 -23653.0 32508.0
-32347.0 -24374.0 32668.998047
-32764.0 -24255.0 31834.0
-32722.0 -23463.0 31764.0
-32168.0 -23017.0 32691.001953
-31894.0 -23506.0 33347.0
-31955.0 -24199.0 33282.0
-32009.998047 -25026.0 33359.0
-32603.0 -24892.0 32355.998047
-33123.0 -24860.0 31408.0
-33134.0 -24015.0 31031.0
-32675.998047 31713.0 8128.999512
-31907.0 31326.0 7977.0
-32316.001953 31862.0 7455.0
-33084.0 32181.0 7582.0
-33023.0 31526.0 9083.0
-32395.0 31388.0 8605.0
-33320.0 31854.0 8377.0
-33808.0 32306.0 7915.0
-34056.0 32001.998047 8675.0
-33685.0 31590.0 9155.0
-34615.0 -34011.0 34395.0
-26957.0 19700.0 11191.0
-26283.0 19527.0 10748.0
-27275.0 20520.0 11168.0
-27573.0 20233.0 11641.0
-27320.0 19413.0 11786.0
-26568.0 18971.0 11313.0
-25957.0 18850.0 10842.0
-44061.0 17770.0 27359.0
-43421.0 17817.0 26795.0
-44062.0 18295.0 26536.0
-43860.0 17196.0 28224.0
-43410.0 17299.0 27600.0
-44992.0 18069.0 27710.0
-44611.0 17627.0 28191.0
-44688.0 18289.0 27022.0
-47202.0 -22249.0 51149.0
-46753.0 -22874.0 51121.0
-46471.0 -22136.0 51592.0
-48150.0 -22199.0 50719.0
-47709.0 -23015.0 50567.0
-56933.0 -26139.0 11187.0
-57792.0 -25883.0 11322.0
-57517.0 -25640.0 10488.0
-56309.0 -26005.0 10511.0
-56139.0 -26510.0 11465.0
-56840.0 -26697.0 12320.0
-57514.0 -26359.0 12019.0
-56939.0 -25659.0 10072.0
-57836.0 -25148.0 9618.0
-58242.0 -25409.0 10602.0
-42212.0 -29505.0 22994.0
-41910.0 -28743.0 22433.0
-41299.0 -28964.0 23402.0
-43063.0 -30047.0 22771.0
-42991.0 -29486.0 22165.0
-41441.0 -29662.0 23968.0
-29009.0 15097.0 17505.0
-28831.0 15925.0 16448.0
-29380.0 15832.0 17173.0
-28311.0 14894.0 17037.0
-30041.0 15911.0 17823.0
-29547.0 14975.0 18196.0
-28567.0 14346.0 17941.0
-59934.0 -26168.0 14490.0
-59289.0 -25961.0 13174.0
-59953.0 -25673.0 13299.0
-59763.0 -26746.0 15465.0
-60480.0 -26227.0 15357.0
-60586.0 -25721.0 14387.0
-58849.0 -10629.0 47904.0
-58442.0 -11403.0 48127.0
-58135.0 -10794.0 48463.0
-59416.0 -10089.0 47495.0
-59722.0 -10956.0 47105.0
-59156.0 -11575.0 47532.0
-58627.0 -9731.0 48258.0
-57867.0 -11834.0 48513.0
-58573.0 -12237.0 47906.0
-57360.0 -10994.0 48985.0
-57835.0 -10137.0 48746.0
-67670.0 3375.0 18072.0
-67249.0 4452.0 18412.0
-67358.0 4231.0 17570.0
-67988.0 2487.0 17831.0
-67974.0 2388.0 18549.0
-67517.0 3568.0 18899.0
-67613.0 3646.0 17026.0
-67803.0 2853.0 19258.0
-67879.0 2911.0 17065.0
-67069.0 4808.0 19385.0
-66863.0 5448.0 19052.0
-66887.0 5414.0 18213.0
-67308.0 4102.0 19592.0
-67050.0 5091.0 17453.0
-67316.0 4468.0 16576.0
-49558.0 -1865.0 51720.0
-49457.0 -2665.0 52002.0
-48103.0 -2704.0 52352.0
-48878.0 -3468.0 52366.0
-47753.0 -3580.0 52630.0
-46824.0 -3012.0 52673.0
-53699.0 27708.0 15120.0
-53725.0 27205.0 15956.0
-53056.0 28275.0 14784.0
-53625.0 28226.0 14269.0
-54416.0 27225.0 15146.0
-54306.0 27737.0 14361.0
-54959.0 27569.0 13830.0
-54137.0 28306.0 13587.0
-29462.0 -10074.0 30795.0
-29741.0 -9827.0 31376.0
-29594.0 -10818.0 31460.0
-29356.0 -9339.0 30281.0
-29137.0 -10640.0 30437.0
-29037.0 -9731.0 29824.0
-29883.0 -10397.0 31906.0
-30118.0 -9474.0 31964.0
-29622.0 -8836.0 30587.0
-29901.0 -9021.0 31287.0
-29804.0 -11429.0 32127.998047
-29459.0 -11845.0 31537.0
-29323.0 -11232.0 31037.0
-35502.0 -29022.0 30088.0
-35652.0 -28540.0 29627.0
-35079.0 -28234.0 30127.0
-34879.0 -28573.0 30571.0
-34862.0 -29219.0 30925.0
-35561.0 -29805.0 30478.0
-36178.0 -29834.0 29840.0
-36209.0 -29056.0 29300.0
-57738.0 21503.0 20327.0
-57246.0 22255.0 19897.0
-57906.0 21934.0 19413.0
-58399.0 21313.0 19500.0
-58259.0 20862.0 20479.0
-57870.0 20739.0 21308.0
-57221.0 21502.0 21029.0
-57455.0 22610.0 19012.0
-58286.0 21981.0 18574.0
-56721.0 22244.0 20588.0
-56776.0 22998.0 19428.0
-63455.0 14303.0 10791.0
-63339.0 14646.0 11654.0
-63253.0 15222.0 10849.0
-63418.0 14741.0 10215.0
-63570.0 14268.0 9657.0
-63076.0 15419.0 11750.0
-63209.0 14863.0 12618.0
-56499.0 -23746.0 45013.0
-55774.0 -23900.0 45563.0
-56285.0 -23038.0 45758.0
-57209.0 -22998.0 44937.0
-57142.0 -23795.0 44275.0
-56919.0 -22273.0 45722.0
-46304.0 -35261.0 39628.0
-45618.0 -35633.0 39372.0
-45821.0 -35245.0 40134.0
-46400.0 -35476.0 38948.0
-46723.0 -34861.0 40248.0
-45142.0 -35438.0 40321.0
-45472.0 -35075.0 40870.0
-46177.0 -34851.0 40761.0
-45010.0 -35828.0 39621.0
-45813.0 -35828.0 38669.0
-45116.0 -36147.0 38754.0
-67061.0 -17330.0 12261.0
-67177.0 -16824.0 11353.0
-66812.0 -17523.0 11337.0
-66751.0 -18092.0 12675.0
-67220.0 -17347.0 13187.0
-66597.0 -18154.0 11765.0
-67432.0 -16275.0 11777.0
-67507.0 -16458.0 12735.0
-66497.0 -18890.0 13347.0
-66891.0 -18049.0 13534.0
-66352.0 -18792.0 12394.0
-45741.0 -20902.0 52386.0
-45210.0 -20270.0 52799.0
-44502.0 -19734.0 53153.0
-45087.0 -19018.0 53133.0
-60796.0 19795.0 16004.0
-61238.0 18706.0 16588.0
-60904.0 19303.0 16896.0
-60349.0 20711.0 15619.0
-60821.0 20264.0 14872.0
-61047.0 19661.0 15251.0
-61288.0 18944.0 15714.0
-60353.0 20348.0 16503.0
-44460.0 17203.0 28937.0
-45124.0 17496.0 29072.0
-44732.0 17017.0 29747.0
-43831.0 16828.0 29020.0
-44571.0 20843.0 23831.0
-44167.0 21311.0 23260.0
-45068.0 21331.0 23467.0
-44617.0 20289.0 24428.0
-43814.0 20562.0 23978.0
-45430.0 20846.0 24121.0
-38276.0 -36895.0 36485.0
-39504.0 -37285.0 37233.0
-39369.0 -37035.0 36392.0
-38117.0 -36578.0 35875.0
-38442.0 -37167.0 37131.0
-37066.0 -36453.0 36013.0
-37364.0 -36887.0 36760.0
-36438.0 20833.0 -20321.0
-35424.0 20416.0 -20480.0
-36410.0 20023.0 -20704.0
-37333.0 20399.0 -20521.0
-36982.0 21462.0 -19822.0
-36093.0 21460.0 -19819.0
-35409.0 21159.0 -20065.0
-48527.0 24336.0 21200.0
-49464.0 24213.0 21481.0
-48932.0 23759.0 21960.0
-48632.0 25110.0 20367.0
-49475.0 24945.0 20693.0
-47553.0 23930.0 21363.0
-47819.0 24615.0 20711.0
-48289.0 23423.0 22194.0
-46685.0 24165.0 20825.0
-47544.0 23350.0 21996.0
-46658.0 23479.0 21536.0
-67429.0 -18808.0 28663.0
-68213.0 -16965.0 28400.0
-67345.0 -18627.0 29560.0
-67861.0 -17500.0 29196.0
-67545.0 -17865.0 30030.0
-67874.0 -16903.0 30226.0
-68185.0 -16482.0 29363.0
-54865.0 6364.0 44954.0
-55476.0 6610.0 44352.0
-56139.0 5920.0 44449.0
-53926.0 6644.0 45276.0
-54829.0 5820.0 45443.0
-55957.0 5445.0 45052.0
-56837.0 6074.0 43772.0
-57074.0 5210.0 44341.0
-55523.0 7084.0 43869.0
-40536.0 20622.0 -19586.0
-41075.0 20105.0 -19883.0
-42103.0 19955.0 -19555.0
-40375.0 19734.0 -20354.0
-39946.0 21341.0 -19260.0
-39707.0 20544.0 -19938.0
-31959.0 -1345.0 35714.0
-32216.0 -1406.0 36453.0
-32407.001953 -1922.0 36761.0
-31724.0 -1669.0 34833.0
-31818.0 -2348.0 34771.0
-26215.0 27334.0 4031.000244
-26705.0 28227.0 4015.999756
-26815.0 27573.0 4680.0
-26194.0 28099.0 3422.0
-25569.0 26955.0 3532.0
-25842.0 26443.0 4234.0
-26372.0 26613.0 4783.0
-27485.0 27575.0 5429.0
-26908.0 26772.0 5331.0
-27366.0 28234.0 4808.0
-26593.0 28993.0 3269.0
-27174.0 28855.0 4143.0
-21330.0 16287.000977 -7240.0
-21340.0 17085.0 -7156.0
-21164.0 15401.0 -7021.0
-21182.0 17593.0 -6382.0
-63613.0 1975.0 38096.0
-63342.0 1585.0 39007.0
-62932.0 2336.0 39147.0
-63859.0 1029.0 38443.0
-63897.0 2365.0 37141.0
-64137.0 1468.0 37437.0
-63160.0 2708.0 38337.0
-62416.0 3208.0 39177.0
-62770.0 1772.0 39961.0
-62307.0 2742.0 39935.0
-63396.0 846.0 39499.0
-69438.0 -9703.0 28580.0
-69412.0 -10574.0 28444.0
-69259.0 -9611.0 29640.0
-69407.0 -8557.0 28600.0
-69607.0 -10160.0 27172.0
-69598.0 -9160.0 27683.0
-69151.0 -10383.0 30064.0
-68896.0 -9773.0 31042.0
-69026.0 -8908.0 30623.0
-69188.0 -8521.0 29716.0
-69312.0 -10936.0 29249.0
-59702.0 21003.0 1149.0
-59705.0 21570.0 1940.0
-58852.0 21817.0 955.0
-60571.0 20715.0 2379.0
-58840.0 21311.0 252.999985
-59418.0 20650.0 126.0
-60385.0 20272.0 1343.0
-60454.0 21271.0 3004.0
-59705.0 22100.0 2772.0
-58880.0 22436.0 1874.0
-66493.0 -4983.0 36453.0
-29838.0 -15867.0 25523.0
-30337.0 -16574.0 26111.0
-29990.0 -16480.0 25072.0
-29561.0 -15715.0 24688.0
-30442.0 -17123.0 25477.0
-30230.0 -17080.0 24444.0
-29774.0 -16288.0 24189.0
-30717.0 -16702.0 26998.0
-30910.0 -17387.0 26666.0
-30940.0 -17783.0 25958.0
-30225.0 -15912.0 26811.0
-62448.0 17348.0 1833.0
-62853.0 17340.0 3281.0
-62220.0 18056.0 2172.0
-62974.0 16655.0 2375.0
-62697.0 16434.0 1168.0
-61702.0 18226.0 995.0
-62092.0 17345.0 823.0
-61464.0 18849.0 1488.0
-61961.0 18786.0 2601.0
-62526.0 18049.0 3219.0
-63173.0 16606.0 3291.0
-62948.0 17625.0 4569.0
-63240.0 16856.0 4375.0
-62847.0 16264.999023 11819.0
-62718.0 17009.0 11140.0
-62988.0 16084.999023 10993.0
-62607.0 16988.0 11953.0
-62914.0 15794.0 12548.0
-62629.0 16631.0 12767.0
-36258.0 -6784.0 46560.0
-36015.0 -7434.0 46082.0
-36040.0 -6838.0 45945.0
-36091.0 -6160.0 46069.0
-36329.0 -5831.0 46690.0
-36522.0 -6313.0 47267.0
-36356.0 -7088.0 47045.0
-36279.0 -7789.0 46830.0
-35842.0 -7137.0 45359.0
-36015.0 -8035.0 46224.0
-35779.0 -7934.0 45490.0
-35847.0 -6441.0 45287.0
-61022.0 21916.0 10754.0
-61313.0 21548.0 10352.0
-61365.0 21029.0 10824.0
-60699.0 22199.0 11310.0
-60708.0 22553.0 10672.0
-61036.0 21520.0 11355.0
-60862.0 22485.0 10061.0
-60662.0 21952.0 12047.0
-60342.0 22750.0 11909.0
-60437.0 22875.0 11185.0
-35740.0 32778.0 -10491.0
-36353.0 32825.0 -10248.0
-35976.0 33187.0 -9602.0
-35229.0 32967.0 -10036.0
-34959.0 32624.0 -10694.0
-35617.0 32451.0 -11147.0
-36329.0 32383.0 -11046.0
-34972.0 32269.001953 -11462.0
-35581.0 31966.0 -11772.0
-46160.0 29857.0 15322.0
-46467.0 30406.0 14823.0
-47064.0 30094.0 15427.0
-45103.0 29469.0 15293.0
-45595.0 30086.0 14862.0
-46740.0 29466.0 15964.0
-45844.0 29332.0 15744.0
-45688.0 30666.0 14372.0
-46629.0 30931.0 14347.0
-47403.0 30572.0 14920.0
-48002.0 30278.0 15322.0
-47644.0 29815.0 15910.0
-59311.0 3476.0 43711.0
-58498.0 3912.0 44251.0
-58869.0 4356.0 43415.0
-59867.0 3777.0 42749.0
-60373.0 2892.0 42919.0
-60009.0 2685.0 43608.0
-59205.0 2874.0 44449.0
-57986.0 4690.0 44013.0
-57911.0 5359.0 43448.0
-59282.0 4699.0 42567.0
-58052.0 -9187.0 48700.0
-58105.0 -8288.0 48791.0
-58786.0 -8523.0 48218.0
-57312.0 -9763.0 49137.0
-57340.0 -8778.0 49236.0
-59464.0 -8024.999512 47712.0
-59254.0 -9242.0 47803.0
-58701.0 -7572.0 48380.0
-57199.0 -7734.0 49348.0
-58057.0 -7328.0 48884.0
-29708.0 29446.0 6914.0
-30019.0 30162.0 6677.0
-30251.0 29851.0 7428.0
-29085.0 29272.0 6118.0
-29511.0 29987.0 6056.0
-29921.0 29068.0 7754.0
-29219.0 28725.0 6828.0
-30471.0 29685.0 8321.0
-30543.0 30489.0 7099.0
-30781.0 30210.0 7891.0
-30545.0 31010.0 6478.0
-29976.0 30629.0 6140.0
-20629.0 20842.0 5154.0
-20775.0 20644.0 5832.0
-20127.0 20230.0 5764.0
-20041.0 20188.0 4970.0
-20267.0 20517.0 4273.0
-19612.0 19534.0 4341.0
-39742.0 -18823.0 53481.0
-39208.0 -19807.0 53385.0
-38580.0 -19142.0 53153.0
-38307.0 -18463.0 52931.0
-40619.0 -19745.0 53570.0
-41092.0 -19134.0 53634.0
-40851.0 -18511.0 53644.0
-39258.0 -17933.0 53275.0
-40692.0 -17879.0 53630.0
-41945.0 -18364.0 53698.0
-27919.0 24162.0 8773.0
-28167.0 24695.0 8585.0
-27677.0 24476.0 8012.0
-27482.0 23786.0 8442.0
-28520.0 25257.0 8619.0
-66795.0 5823.0 15133.0
-66388.0 6859.0 15768.0
-66540.0 6408.0 14483.0
-66919.0 5466.0 14044.0
-67184.0 4888.0 14808.0
-67066.0 5087.0 15838.0
-66717.0 6003.0 16066.999023
-30179.0 -20595.0 40999.0
-29808.0 -21178.0 41162.0
-29591.0 -20921.0 40513.0
-29942.0 -20193.0 40285.0
-30586.0 -19976.0 41093.0
-30548.0 -20571.0 41601.0
-30195.0 -21162.0 41730.0
-61201.0 16743.0 21261.0
-60754.0 17390.0 21448.0
-61150.0 17392.0 20217.0
-60982.0 16538.0 22533.0
-61398.0 16079.0 22124.0
-61763.0 15894.0 21383.0
-61667.0 16444.0 20590.0
-61888.0 -22460.0 8306.0
-60960.0 -23063.0 8280.0
-61316.0 -23080.0 8908.0
-61248.0 -22625.0 7439.0
-62358.0 -22406.0 9185.0
-62735.0 -21855.0 8544.0
-62593.0 -21625.0 7659.0
-61903.0 -21989.0 7146.0
-25133.0 14107.0 14719.0
-25263.0 13543.0 15606.0
-24480.0 12965.0 15560.0
-24274.0 13373.0 14792.0
-25780.0 14971.0 14332.0
-25874.0 14393.0 15139.0
-25120.0 14894.0 13760.0
-24594.0 14154.0 14101.0
-24885.0 12732.0 16399.0
-25586.0 13091.0 16653.0
-26099.0 13925.0 15989.0
-32792.0 35330.0 3990.0
-33343.0 35943.0 3731.0
-33412.0 35345.0 4540.0
-32037.998047 34879.0 3748.0
-32276.0 35448.0 3251.0
-32830.0 35982.0 3281.0
-32345.001953 34574.0 4426.0
-61320.0 20467.0 12332.0
-61053.0 21216.0 12102.0
-61410.0 20648.0 11594.0
-60849.0 21245.0 12842.0
-61110.0 20500.0 13166.0
-61655.0 19802.0 11710.0
-61557.0 19763.0 12587.0
-69400.0 -13363.0 26198.0
-69469.0 -13484.0 24707.0
-69353.0 -14036.0 25687.0
-69510.0 -12591.0 26848.0
-69620.0 -11695.0 26777.0
-43924.0 33714.0 -2874.0
-43721.0 33367.0 -3474.0
-44433.0 33161.0 -2911.0
-43249.0 34438.0 -2530.0
-43312.0 33958.0 -3139.0
-44424.0 33787.0 -2268.0
-43809.0 34229.0 -2316.0
-44983.0 33011.0 -2576.0
-44905.0 32480.0 -3159.0
-44279.0 32699.001953 -3525.0
-57494.0 6995.0 -14583.0
-56977.0 7315.0 -15045.0
-57389.0 6279.0 -15110.0
-58018.0 6338.0 -14204.0
-57937.0 7174.0 -13859.0
-57060.0 7979.0 -14524.0
-57650.0 7912.0 -13763.0
-58146.0 5456.0 -14521.0
-56739.0 6781.0 -15651.0
-56359.0 7613.0 -15670.0
-56399.0 8351.0 -15110.0
-62059.0 8852.0 33084.0
-62438.0 8763.0 32249.0
-62790.0 8057.999512 32609.001953
-62290.0 8057.999512 33748.0
-61464.0 9214.0 33866.0
-61319.0 9964.0 32961.0
-61841.0 9652.0 32264.0
-68315.0 -10078.0 32961.0
-68008.0 -9291.0 33807.0
-68337.0 -8846.0 32895.0
-68649.0 -9548.0 32071.998047
-68633.0 -10640.0 31953.0
-67967.0 -10484.0 33852.0
-68320.0 -11275.0 32771.0
-60612.0 301.0 -13774.0
-60006.0 17.0 -14623.0
-60807.0 -639.0 -13964.0
-61317.0 -330.0 -13128.0
-60587.0 1296.0 -13346.0
-60085.0 1105.0 -14144.0
-61029.0 622.0 -13055.0
-50924.0 12127.0 -18245.0
-51475.0 11310.0 -18211.0
-51503.0 12362.0 -17636.0
-51063.0 13241.0 -17493.0
-50649.0 11299.0 -18771.0
-50360.0 12599.0 -18458.0
-51985.0 11637.0 -17641.0
-51912.0 12797.0 -16923.0
-51415.0 10565.0 -18607.0
-52310.0 10884.0 -17787.0
-59153.0 -22355.0 3625.0
-58588.0 -22267.0 2732.0
-58334.0 -22650.0 3838.0
-59415.0 -22530.0 4604.0
-60216.0 -21977.0 4060.999756
-59491.0 -21985.0 2936.0
-57597.0 -22648.0 3130.0
-57985.0 -22174.0 2114.0
-58958.0 -21795.0 1971.0
-58678.0 -22967.0 5008.0
-57839.0 -23022.0 4453.0
-23492.0 11158.0 17310.0
-22482.0 10162.0 17726.0
-22814.0 10861.0 16923.0
-24278.0 11953.0 16934.0
-24048.0 11270.0 17826.0
-23159.0 10425.0 18197.0
-23515.0 11715.0 16429.0
-33859.0 -22575.0 27611.0
-33555.0 -22509.0 28596.0
-33921.0 -23221.0 28621.0
-33363.0 -21862.0 27960.0
-33697.0 -22048.0 26930.0
-19049.0 10919.0 9756.0
-18848.0 10559.0 9011.0
-18887.0 11378.0 8682.0
-19124.0 11666.0 9289.0
-19086.0 10252.0 10466.0
-18870.0 9927.0 9731.0
-19407.0 11753.0 10117.0
-19314.0 11023.0 10530.0
-18768.0 12212.0 8160.0
-19033.0 12355.0 8756.0
-18665.0 10747.0 8185.000488
-18620.0 11595.0 7957.0
-18603.0 9957.0 8175.999512
-18743.0 9729.0 8916.0
-51992.0 -33066.0 23040.0
-51062.0 -33337.0 23296.0
-51558.0 -33652.0 23877.0
-51284.0 -32785.0 22533.0
-52809.0 -32719.001953 22732.0
-52156.0 -32455.001953 22178.0
-52434.0 -33383.0 23616.0
-51179.0 -34089.0 24546.0
-52177.0 -33874.0 24505.0
-50348.0 -33707.0 23807.0
-50311.0 -33111.0 22840.0
-23232.0 15076.0 -11414.0
-22861.0 15481.0 -10864.0
-22790.0 14737.0 -10728.0
-23125.0 14197.0 -11245.0
-23657.0 14493.0 -11913.0
-23387.0 15841.0 -11772.0
-23731.0 15330.0 -12144.0
-22550.0 14083.0 -10417.0
-22374.0 14947.0 -10085.0
-42583.0 15039.0 -21659.0
-41914.0 15603.0 -21778.0
-42086.0 14407.0 -21900.0
-42933.0 14193.0 -21651.0
-43462.0 14952.0 -21388.0
-42914.0 15828.0 -21412.0
-39414.0 -13853.0 52809.0
-38084.0 -13960.0 51823.0
-38506.0 -13099.0 51904.0
-40281.0 -14447.0 53367.0
-39159.0 -14619.0 52764.0
-40996.0 -13844.0 53603.0
-39948.0 -13066.0 52996.0
-39022.0 -12291.0 52157.0
-40519.0 -12124.0 53193.0
-41112.0 -12934.0 53548.0
-59469.0 -5090.0 -15598.0
-58980.0 -4280.0 -16004.999023
-58554.0 -5264.0 -16093.0
-59044.0 -6068.0 -15671.0
-60137.0 -6037.0 -15089.0
-60249.0 -5059.0 -15075.0
-59794.0 -4136.0 -15489.0
-27667.0 -6101.0 25587.0
-28075.0 -6889.0 26439.0
-27628.0 -6727.0 25778.0
-28092.0 -7509.0 26706.0
-27668.0 -7427.0 25993.0
-40471.0 34041.0 9661.0
-41376.0 34257.0 9684.0
-41273.0 33840.0 10062.0
-40920.0 33490.0 10347.0
-40076.0 33557.0 10130.0
-39540.0 34020.0 9526.0
-40189.0 34545.0 9168.0
-41128.0 34649.0 9232.0
-61971.0 -20125.0 2587.0
-62564.0 -19338.0 2168.0
-61646.0 -20003.0 1681.0
-62214.0 -20312.0 3651.0
-62761.0 -19618.0 3262.0
-61261.0 -20598.0 2361.0
-61261.0 -21083.0 3448.0
-60776.0 -20573.0 1318.0
-60764.0 -21153.0 2674.0
-60380.0 -21029.0 1841.0
-66262.0 -20345.0 16581.0
-66050.0 -20514.0 15917.0
-65679.0 -21223.0 16372.0
-66676.0 -19661.0 16820.0
-66682.0 -19421.0 16232.0
-65865.0 -21242.0 17256.0
-66420.0 -20242.0 17374.0
-66273.0 -19905.0 15311.0
-65678.0 -20856.0 15228.0
-65271.003906 -22010.0 16807.0
-65306.0 -21650.0 15716.0
-66570.0 -21056.0 25098.0
-66775.0 -20671.0 26118.0
-67027.0 -20237.0 25231.0
-66731.0 -20840.0 24184.0
-66303.0 -21624.0 24163.0
-66180.0 -21849.0 25150.0
-66311.0 -21489.0 26133.0
-28929.0 13466.0 19516.0
-29739.0 14024.0 19481.0
-29610.0 13413.0 20153.0
-28883.0 12919.0 20240.0
-28186.0 12901.0 19628.0
-29186.0 14213.0 18734.0
-28345.0 13535.0 18867.0
-44591.0 23190.0 21344.0
-45282.0 23181.0 21448.0
-44510.0 22550.0 22003.0
-43951.0 22906.0 21703.0
-44816.0 23885.0 20655.0
-44071.0 23675.0 20870.0
-34757.0 5297.0 41871.0
-34242.0 4536.0 41740.0
-34363.0 5100.0 41304.0
-34736.0 5889.0 41513.0
-34815.0 4078.0 42745.0
-34397.0 4084.0 42228.0
-60718.0 1763.0 43436.0
-61157.0 777.0 43589.0
-60464.0 1191.0 44294.0
-61150.0 1986.0 42630.0
-60064.0 2089.0 44058.0
-61427.0 1111.0 42880.0
-61037.0 2809.0 42031.0
-23075.0 -3713.0 19815.0
-23684.0 -3754.0 20280.0
-23960.0 -4391.0 20629.0
-22161.0 -4349.0 19372.0
-22519.0 -3611.0 19425.0
-50809.0 31774.0 11864.0
-52212.0 31016.0 10963.0
-52045.0 30824.0 11608.0
-51253.0 31168.0 12034.0
-28552.0 -20613.0 38406.0
-28081.0 -20857.0 37874.0
-28967.0 -20664.0 39251.0
-28438.0 -21273.0 39090.0
-27981.0 -21445.0 38477.0
-52041.0 5366.0 47080.0
-52706.0 4576.0 47366.0
-51640.0 4753.0 47612.0
-51737.0 6015.0 46806.0
-52730.0 5577.0 46658.0
-53617.0 4744.0 46883.0
-51223.0 5414.0 47362.0
-27987.0 -1043.0 25427.0
-27694.0 -1694.0 24948.0
-27535.0 -1027.0 24627.0
-28007.0 -1944.0 25495.0
-28231.0 -395.0 25993.0
-28356.0 -1339.0 26187.0
-27920.0 -203.0 25354.0
-27524.0 -263.0 24600.0
-27183.0 -700.0 23969.0
-27342.0 -1816.0 24411.0
-27095.0 -1591.0 23856.0
-27515.0 -2503.0 24740.0
-43554.0 -33724.0 44721.0
-44680.0 -34255.0 43275.0
-43773.0 -34419.0 43491.0
-43546.0 -34121.0 44123.0
-32185.001953 8281.0 32348.0
-31481.0 7898.0 31289.0
-32169.998047 8706.0 31312.0
-32943.0 9219.0 32104.0
-32979.0 8883.0 32982.0
-32411.0 8053.000488 33510.0
-31488.0 7095.0 33007.0
-31442.0 7459.0 32134.998047
-30713.0 6461.0 32153.0
-30703.0 6879.0 31249.0
-52281.0 762.0 49809.0
-50992.0 1134.0 49999.0
-51645.0 1742.0 49489.0
-53119.0 1205.0 49299.0
-52762.0 -436.0 50185.0
-51691.0 51.0 50330.0
-53368.0 163.0 49694.0
-52250.0 2185.0 49057.0
-50528.0 2188.0 49533.0
-51239.0 2851.0 48929.0
-50395.0 446.0 50523.0
-49722.0 1512.0 50139.0
-31191.0 15365.0 19312.0
-31966.0 15051.0 20186.0
-31007.0 14743.0 19716.0
-30575.0 15842.0 18474.0
-30259.0 15235.0 18635.0
-30254.0 14698.0 19145.0
-32484.001953 15682.0 20129.0
-32779.0 14946.0 20882.0
-32062.0 14310.0 20975.0
-31368.0 14375.0 20416.0
-30462.0 14010.0 20106.0
-43461.0 -25968.0 14319.0
-43080.0 -26052.0 15065.0
-44055.0 -26514.0 15301.0
-44305.0 -26351.0 14670.0
-43509.0 -26485.0 15798.0
-42673.0 -26126.0 15741.0
-49536.0 -34407.0 37579.0
-49805.0 -34049.0 38197.0
-50445.0 -33973.0 37417.0
-49901.0 -34376.0 37015.0
-48996.0 -34791.0 36911.0
-50638.0 -34157.0 36495.0
-49904.0 -34505.0 36261.0
-52475.0 -25355.0 8886.0
-53151.0 -25062.0 8130.999512
-52088.0 -24781.0 7798.0
-51300.0 -24960.0 8342.0
-51577.0 -25445.0 9206.0
-42175.0 -33112.0 26649.0
-42578.0 -32817.0 25983.0
-41677.0 -32540.0 26483.0
-41670.0 -33349.0 27389.0
-42574.0 -33539.0 26833.0
-43261.0 -33344.0 26063.0
-41178.0 -32765.998047 27152.0
-41543.0 -32015.0 26086.0
-40728.0 -32113.998047 26906.0
-60154.0 -16783.0 -6818.0
-61126.0 -16160.0 -6764.0
-60647.0 -16024.0 -7363.0
-59494.0 -17360.0 -6588.0
-60234.0 -17538.0 -5833.0
-59876.0 -16021.0 -7867.0
-59419.0 -16592.0 -7421.0
